100
0 1.71389 3.42262 5.11449 6.77283 8.37818 9.91015 11.3491 12.6774 13.8808 14.949 15.8763 16.6621 17.3107 17.8314 18.2378 18.5473 18.7799 18.957 19.1002 19.2293 19.36 19.5022 19.6571 19.8145 19.9498 20.0386 20.1104 20.1948 20.3072 20.451 20.6209 20.8054 20.9887 21.1528 21.2791 21.3503 21.351 21.2688 21.0952 20.8256 20.4598 20.0017 19.4588 18.8418 18.1636 17.438 16.6783 15.896 15.0981 14.2857 13.4562 12.6229 11.8065 11.03 10.3159 9.68557 9.15741 8.74595 8.46102 8.3072 8.28346 8.38311 8.59396 8.89868 9.27555 9.69925 10.1421 10.5753 10.9709 11.3031 11.5509 11.7004 11.7471 11.6988 11.5792 11.4206 11.2294 11.0041 10.7439 10.4485 10.1179 9.75306 9.35496 8.92532 8.46615 7.97997 7.46949 6.93776 6.38797 5.82356 5.24781 4.66414 4.07568 3.48535 2.89556 2.30839 1.72522 1.14653 0.571973 
0 1.71429 3.42563 5.12406 6.79417 8.4173 9.97351 11.4432 12.8086 14.0549 15.1711 16.1506 16.9917 17.6979 18.2772 18.742 19.1087 19.3963 19.6255 19.8171 19.9902 20.1608 20.3387 20.5256 20.7122 20.8751 20.9913 21.0886 21.1953 21.3253 21.4815 21.6582 21.8437 22.0224 22.1768 22.2891 22.3427 22.3231 22.219 22.0229 21.7314 21.3452 20.8691 20.3114 19.6835 18.9985 18.2706 17.513 16.7364 15.9473 15.1453 14.3268 13.5061 12.7051 11.9475 11.2565 10.6533 10.1562 9.77932 9.53186 9.41759 9.43458 9.57509 9.8259 10.1686 10.5805 11.0352 11.5043 11.9584 12.3688 12.7097 12.96 13.1062 13.1446 13.084 12.9499 12.7753 12.5642 12.3122 12.0168 11.6763 11.2907 10.8607 10.3884 9.87663 9.32895 8.74977 8.14389 7.51653 6.87316 6.21934 5.56041 4.90161 4.24758 3.60232 2.96887 2.34937 1.74458 1.15362 0.573946 
0 1.71471 3.42883 5.13421 6.81679 8.45876 10.0406 11.5429 12.9475 14.2391 15.406 16.4406 17.3403 18.1072 18.7481 19.2745 19.7013 20.0466 20.3302 20.5722 20.7913 21.0032 21.2178 21.4375 21.6539 21.845 21.989 22.1122 22.2412 22.3887 22.5567 22.7392 22.9244 23.0968 23.2397 23.3358 23.3693 23.3269 23.1984 22.9773 22.6613 22.2524 21.7561 21.1817 20.5413 19.8485 19.1173 18.3611 17.5899 16.8095 16.018 15.2105 14.4023 13.6164 12.877 12.2079 11.6306 11.163 10.8189 10.6071 10.5306 10.5865 10.7663 11.0558 11.4354 11.8815 12.3669 12.8622 13.3373 13.7632 14.1136 14.3676 14.5118 14.5432 14.4719 14.3246 14.1357 13.9063 13.6296 13.3011 12.918 12.4797 11.9873 11.4431 10.8514 10.2171 9.54633 8.84602 8.12348 7.3864 6.64254 5.8993 5.16381 4.44228 3.73994 3.06054 2.40637 1.77768 1.17228 0.585474 
0 1.71517 3.43228 5.14518 6.84123 8.50357 10.1132 11.6506 13.0975 14.438 15.6595 16.7535 17.7162 18.5483 19.2554 19.8477 20.3389 20.7459 21.0875 21.383 21.6507 21.906 22.1592 22.413 22.6602 22.8803 23.0528 23.2026 23.3541 23.519 23.6982 23.8852 24.0684 24.2325 24.3611 24.4379 24.4482 24.3795 24.2229 23.9732 23.6294 23.1944 22.675 22.0814 21.4263 20.7238 19.9882 19.2326 18.4665 17.6946 16.9136 16.1173 15.3212 14.5496 13.8271 13.178 12.6238 12.1827 11.8681 11.6883 11.6459 11.7372 11.9531 12.2782 12.6924 13.171 13.6859 14.2069 14.7033 15.1454 15.5066 15.7661 15.9105 15.9374 15.8579 15.7001 15.4995 15.2549 14.9571 14.5996 14.1784 13.6924 13.1424 12.5315 11.8645 11.1477 10.389 9.59693 8.78101 7.95102 7.11693 6.28826 5.47411 4.68241 3.91976 3.19082 2.49821 1.84182 1.2183 0.620828 
0 1.71566 3.43598 5.15695 6.86745 8.55161 10.1909 11.766 13.2582 14.6511 15.9311 17.0886 18.1185 19.0203 19.7982 20.4607 21.0204 21.493 21.8962 22.2484 22.5675 22.8686 23.1621 23.4516 23.7308 23.9811 24.1831 24.3602 24.5349 24.7171 24.9071 25.098 25.2777 25.4316 25.5437 25.5987 25.5827 25.4846 25.2967 25.0153 24.6404 24.1764 23.6312 23.016 22.3443 21.6306 20.8895 20.1337 19.3725 18.6091 17.8387 17.0536 16.2694 15.5108 14.8034 14.1714 13.6367 13.2176 12.9275 12.7745 12.7607 12.8823 13.1291 13.4855 13.9305 14.4385 14.9808 15.5264 16.0437 16.5027 16.8763 17.1432 17.2905 17.316 17.2317 17.067 16.8582 16.6026 16.2885 15.9076 15.4549 14.9283 14.3283 13.658 12.9231 12.1307 11.2899 10.4111 9.50558 8.58518 7.66201 6.74775 5.85356 4.98925 4.16296 3.3805 2.64504 1.95636 1.3101 0.697453 
0 1.71618 3.43986 5.16928 6.89491 8.60193 10.2723 11.8868 13.4265 14.8742 16.2154 17.4394 18.5397 19.5144 20.3663 21.1023 21.7338 22.2749 22.7424 23.1539 23.5266 23.8755 24.2111 24.5377 24.8502 25.1317 25.3645 25.5699 25.7685 25.9687 26.1697 26.3641 26.54 26.6828 26.7773 26.809 26.7652 26.6359 26.415 26.0998 25.692 25.1973 24.6247 23.9866 23.297 22.5713 21.824 21.0678 20.3112 19.5564 18.7969 18.023 17.2502 16.5035 15.8085 15.1901 14.6704 14.2677 13.9959 13.8629 13.8708 14.0157 14.2871 14.6688 15.1393 15.6726 16.2391 16.8071 17.3446 17.8206 18.2077 18.4844 18.6374 18.665 18.5797 18.4121 18.1994 17.9374 17.6128 17.2156 16.7394 16.1811 15.5407 14.8211 14.028 13.1694 12.2552 11.2972 10.3082 9.30203 8.29284 7.29445 6.32013 5.3817 4.48907 3.6494 2.86672 2.14091 1.46689 0.834029 
0 1.7167 3.4438 5.18178 6.92277 8.65298 10.355 12.0095 13.5974 15.1007 16.5041 17.7957 18.9676 20.0165 20.9436 21.7546 22.4591 23.0702 23.6034 24.0756 24.5032 24.9011 25.2801 25.645 25.992 26.306 26.5706 26.8056 27.0291 27.2483 27.4613 27.6601 27.8328 27.9652 28.0426 28.0514 27.98 27.8199 27.5659 27.2171 26.7766 26.2512 25.6513 24.9902 24.2829 23.5451 22.7918 22.0353 21.2835 20.5375 19.789 19.0265 18.2646 17.5282 16.843 16.2341 15.7239 15.3314 15.0704 14.9495 14.9711 15.131 15.419 15.8188 16.3085 16.8615 17.448 18.0355 18.5914 19.0841 19.4857 19.774 19.9357 19.9689 19.8867 19.7203 19.5081 19.2451 18.9164 18.5108 18.0203 17.4408 16.7714 16.0145 15.1754 14.2623 13.2858 12.2586 11.1948 10.1099 9.01994 7.94085 6.88803 5.87542 4.91486 4.01514 3.18136 2.41386 1.70708 1.04879 
0 1.71721 3.44764 5.194 6.94999 8.70289 10.4358 12.1295 13.7646 15.3225 16.7869 18.1448 19.3871 20.509 21.5104 22.3952 23.172 23.8525 24.4511 24.9838 25.4666 25.9139 26.3369 26.7409 27.1235 27.471 27.7687 28.0343 28.2842 28.5239 28.7505 28.9557 29.1274 29.2515 29.3142 29.3027 29.2063 29.0178 28.7334 28.3535 27.8825 27.3286 26.7033 26.021 25.2975 24.5489 23.7906 23.0345 22.288 21.5511 20.814 20.0629 19.3114 18.5836 17.9052 17.3013 16.7949 16.4054 16.1474 16.0299 16.0559 16.2218 16.5175 16.9269 17.4282 17.9946 18.5958 19.1991 19.771 20.2794 20.6957 20.9973 21.1702 21.2125 21.1373 20.9766 20.7694 20.5106 20.1846 19.7789 19.2842 18.6952 18.0096 17.2289 16.3577 15.404 14.3785 13.2943 12.1667 11.0124 9.84923 8.69498 7.56724 6.48209 5.45348 4.49201 3.60417 2.79103 2.04684 1.35813 
0 1.71768 3.45124 5.20544 6.9755 8.74967 10.5115 12.2421 13.9216 15.5308 17.0527 18.4733 19.7822 20.9733 22.0451 23.0005 23.8464 24.5935 25.2552 25.8467 26.3834 26.8796 27.3465 27.7901 28.2089 28.591 28.9227 29.2203 29.4981 29.7603 30.0031 30.2176 30.3917 30.5116 30.5639 30.5367 30.4203 30.2084 29.8987 29.4926 28.9958 28.4178 27.7712 27.0712 26.3344 25.5776 24.8159 24.0617 23.3213 22.5941 21.8685 21.129 20.3873 19.6665 18.9918 18.3884 17.8798 17.486 17.2225 17.0992 17.1199 17.2819 17.5758 17.9858 18.4904 19.063 19.673 20.2874 20.8722 21.3947 21.8255 22.1414 22.3278 22.3823 22.3179 22.1669 21.969 21.7197 21.4031 21.0059 20.5175 19.931 19.2429 18.453 17.5651 16.5861 15.5266 14.3997 13.2212 12.009 10.7821 9.56033 8.36317 7.20894 6.11375 5.09023 4.14648 3.28461 2.49905 1.77536 
0 1.71811 3.45444 5.21561 6.9982 8.79134 10.5791 12.3426 14.0618 15.7172 17.2909 18.768 20.1371 21.391 22.5271 23.547 24.4565 25.2654 25.986 26.6329 27.221 27.7645 28.2745 28.7576 29.213 29.6304 29.997 30.3277 30.6352 30.9223 31.1844 31.4123 31.5935 31.7148 31.763 31.7268 31.5975 31.3696 31.042 30.617 30.1015 29.5059 28.8439 28.1315 27.3858 26.6242 25.8621 25.1114 24.3785 23.6615 22.9478 22.2201 21.4877 20.7722 20.0982 19.4908 18.9739 18.5686 18.2911 18.1528 18.1585 18.3066 18.5887 18.99 19.4892 20.0603 20.6726 21.2929 21.8869 22.4212 22.8658 23.1965 23.3981 23.4676 23.4173 23.2797 23.095 22.8602 22.5594 22.179 21.7073 21.1356 20.4588 19.6749 18.7861 17.7983 16.7209 15.5669 14.3521 13.0949 11.8158 10.5358 9.27651 8.05837 6.8997 5.81527 4.81505 3.90244 3.07238 2.30984 
0 1.71846 3.4571 5.22409 7.01714 8.82616 10.6357 12.4269 14.1796 15.874 17.4916 19.0169 20.4376 21.7456 22.9374 24.0135 24.9791 25.8429 26.6165 27.314 27.9498 28.5378 29.0893 29.6113 30.1035 30.5567 30.9589 31.3238 31.6627 31.9773 32.2625 32.5085 32.703 32.8325 32.8844 32.8478 32.7146 32.4802 32.144 31.7096 31.1843 30.5796 29.9099 29.1917 28.4429 27.6811 26.9219 26.1773 25.4532 24.7471 24.0457 23.3299 22.6063 21.8947 21.2185 20.6029 20.0722 19.6482 19.3489 19.1866 19.1678 19.2922 19.5529 19.9359 20.4211 20.9828 21.5906 22.2114 22.8105 23.354 23.811 24.1566 24.3746 24.4611 24.4278 24.3068 24.1388 23.9226 23.6437 23.2879 22.8427 22.2977 21.6456 20.8828 20.0092 19.029 17.9505 16.7855 15.5498 14.262 12.9431 11.6158 10.3032 9.02785 7.8103 6.66754 5.61157 4.64736 3.77068 2.9663 
0 1.71873 3.45911 5.23052 7.03153 8.85269 10.6788 12.4914 14.2701 15.9949 17.647 19.2102 20.672 22.0235 23.2604 24.3828 25.395 26.3051 27.1244 27.8662 28.5448 29.1739 29.7648 30.3244 30.8532 31.3423 31.7805 32.1805 32.5526 32.8976 33.21 33.4796 33.694 33.8397 33.9043 33.8773 33.7508 33.5209 33.1874 32.7543 32.23 31.626 30.9575 30.2416 29.4963 28.7397 27.9875 27.2517 26.5381 25.8439 25.1551 24.4513 23.7362 23.027 22.3462 21.7185 21.1689 20.7202 20.3915 20.197 20.145 20.2367 20.4669 20.8228 21.2856 21.8302 22.427 23.0427 23.6426 24.1922 24.6599 25.0199 25.2548 25.3598 25.3458 25.2438 25.0953 24.9014 24.6494 24.3252 23.9154 23.4079 22.7935 22.0658 21.2228 20.2664 19.203 18.0434 16.8025 15.4987 14.1535 12.7906 11.4346 10.1099 8.83938 7.64217 6.53244 5.51695 4.59262 3.74438 
0 1.71889 3.46039 5.23463 7.0408 8.86987 10.707 12.5337 14.3299 16.0753 17.7511 19.3409 20.8318 22.2146 23.4848 24.6419 25.69 26.6368 27.4931 28.2722 28.9879 29.6539 30.2812 30.877 31.4417 31.9667 32.441 32.8768 33.2835 33.6618 34.0057 34.3047 34.5461 34.7167 34.8039 34.7972 34.689 34.4756 34.157 33.7375 33.2255 32.6333 31.976 31.2709 30.5366 29.7911 29.0504 28.3265 27.6251 26.9437 26.2678 25.5763 24.8693 24.1616 23.4741 22.8312 22.2584 21.7795 21.4152 21.1816 21.0886 21.1397 21.3312 21.6522 22.0849 22.6056 23.185 23.7903 24.3866 24.9391 25.4154 25.7888 26.0408 26.1652 26.1718 26.0908 25.9637 25.795 25.574 25.2873 24.9205 24.4601 23.8944 23.2148 22.4163 21.4985 20.4658 19.3271 18.0961 16.7909 15.4329 14.0465 12.6577 11.2925 9.97579 8.7291 7.56876 6.50347 5.53156 4.6385 
0 1.71896 3.4609 5.2363 7.04464 8.87714 10.7192 12.5525 14.357 16.1127 17.8008 19.405 20.9122 22.3135 23.6041 24.7837 25.8561 26.829 27.7132 28.5217 29.2683 29.9663 30.6269 31.2568 31.8564 32.4169 32.9271 33.399 33.8419 34.2562 34.6357 34.9698 35.2457 35.4499 35.5697 35.5945 35.5167 35.3322 35.0411 34.6477 34.1604 33.5912 32.9553 32.2703 31.5546 30.8264 30.1017 29.3929 28.7057 28.0379 27.3753 26.6962 25.9973 25.2902 24.5945 23.9341 23.3347 22.8216 22.4168 22.1384 21.9985 22.0025 22.1487 22.428 22.8243 23.3149 23.8714 24.4614 25.0501 25.6024 26.0851 26.4705 26.7389 26.883 26.911 26.8521 26.7477 26.6061 26.4191 26.1742 25.8565 25.4509 24.9433 24.3225 23.5806 22.7146 21.7262 20.6224 19.4154 18.1223 16.7645 15.3666 13.9556 12.559 11.2037 9.91338 8.70656 7.594 6.57567 5.63795 
0 1.71892 3.46063 5.2355 7.04301 8.87443 10.7153 12.5475 14.3513 16.1068 17.7956 19.4018 20.9125 22.3191 23.6172 24.8067 25.8917 26.88 27.7825 28.6123 29.3831 30.1081 30.7983 31.4601 32.0933 32.6887 33.2342 33.7422 34.2224 34.675 35.094 35.4688 35.7861 36.0325 36.1947 36.262 36.2262 36.0829 35.8319 35.4769 35.0261 34.4911 33.887 33.231 32.5415 31.8367 31.1327 30.442 29.771 29.1176 28.4687 27.8022 27.1113 26.4045 25.6997 25.0202 24.3924 23.8422 23.3937 23.0667 22.8755 22.8277 22.9238 23.1565 23.5114 23.9671 24.4963 25.067 25.6446 26.1936 26.6804 27.0762 27.3602 27.5234 27.573 27.5364 27.4552 27.3415 27.1902 26.99 26.7256 26.3803 25.9379 25.3841 24.7084 23.9046 22.9719 21.9149 20.7441 19.4753 18.1295 16.7312 15.3082 13.8894 12.5033 11.1757 9.92724 8.77089 7.70836 6.72717 
0 1.71878 3.45962 5.23235 7.03614 8.86216 10.696 12.5197 14.314 16.0593 17.7378 19.3339 20.8358 22.2351 23.5282 24.7154 25.8015 26.7947 27.7062 28.5492 29.3377 30.0847 30.8007 31.4918 32.1571 32.7861 33.3662 33.91 34.428 34.9209 35.3828 35.803 36.1682 36.4645 36.6782 36.798 36.8152 36.7246 36.5252 36.2202 35.8171 35.3269 34.7641 34.1455 33.4893 32.8136 32.1346 31.465 30.8118 30.1738 29.5389 28.8852 28.2024 27.496 26.7818 26.0829 25.4257 24.8374 24.3437 23.9663 23.7216 23.6196 23.6627 23.8458 24.1562 24.5738 25.0724 25.6207 26.1843 26.7276 27.2163 27.6207 27.9189 28.1005 28.1709 28.1562 28.0978 28.0119 27.8968 27.7426 27.5336 27.2517 26.8786 26.3973 25.7943 25.0603 24.1917 23.1907 22.0657 20.8313 19.5073 18.1185 16.6928 15.2604 13.8513 12.4929 11.2083 10.0124 8.90881 7.88639 
0 1.71856 3.45793 5.22705 7.02453 8.84123 10.6627 12.4714 14.2481 15.974 17.632 19.2074 20.689 22.0695 23.346 24.5199 25.5965 26.5848 27.4966 28.3453 29.1451 29.909 30.6472 31.3649 32.0603 32.7217 33.3351 33.9141 34.47 35.0045 35.5118 35.9814 36.3999 36.7526 37.0257 37.2067 37.2863 37.2583 37.1208 36.876 36.5303 36.0941 35.581 35.0073 34.3908 33.7492 33.099 32.4532 31.8194 31.1975 30.5767 29.9361 29.2617 28.556 27.8331 27.1152 26.4293 25.8036 25.2651 24.8376 24.5395 24.3829 24.3726 24.5053 24.7699 25.1481 25.6145 26.1386 26.6863 27.2219 27.7106 28.1219 28.4326 28.6311 28.7211 28.7272 28.6904 28.6313 28.5517 28.4428 28.2891 28.0714 27.769 27.3624 26.8352 26.1751 25.3757 24.4366 23.3642 22.1714 20.8772 19.5057 18.0854 16.647 15.222 13.8395 12.5244 11.2937 10.153 9.09248 
0 1.71825 3.45567 5.21995 7.00889 8.81295 10.6176 12.4054 14.1578 15.8566 17.4855 19.0308 20.4824 21.8342 23.0842 24.235 25.293 26.2678 27.1721 28.0198 28.8252 29.6014 30.358 31.0996 31.8231 32.515 33.1602 33.7732 34.3668 34.9434 35.4979 36.0197 36.4953 36.9097 37.248 37.4972 37.6467 37.6893 37.6219 37.4454 37.1652 36.7905 36.334 35.8113 35.2396 34.6363 34.018 33.3981 32.785 32.1797 31.5735 30.9461 30.2806 29.5764 28.8459 28.1109 27.3983 26.7374 26.1566 25.6813 25.3322 25.1233 25.0613 25.145 25.365 25.7041 26.1383 26.6378 27.1688 27.6955 28.1827 28.5992 28.9207 29.1343 29.2422 29.2673 29.2504 29.2163 29.1698 29.1041 29.0037 28.848 28.6147 28.2818 27.8301 27.2444 26.5156 25.6409 24.6245 23.4776 22.2182 20.8698 19.461 18.0231 16.5886 15.1881 13.8483 12.588 11.4145 10.32 
0 1.71789 3.45296 5.21144 6.99013 8.77896 10.5633 12.3258 14.0486 15.7142 17.3072 18.8151 20.229 21.544 22.7597 23.8796 24.9114 25.8658 26.7562 27.5972 28.4033 29.1874 29.959 30.7217 31.471 32.1916 32.8667 33.5122 34.1424 34.7609 35.3631 35.9387 36.4739 36.9531 37.3608 37.6829 37.9075 38.0264 38.0348 37.9325 37.7234 37.4156 37.0208 36.5535 36.0303 35.4684 34.8843 34.2919 33.7004 33.1123 32.5207 31.9068 31.2507 30.5492 29.8131 29.0635 28.3277 27.6354 27.0166 26.4983 26.1028 25.846 25.7366 25.775 25.9534 26.256 26.6598 27.1357 27.6502 28.1676 28.6525 29.0727 29.4033 29.6299 29.7535 29.7955 29.7962 29.7843 29.768 29.7418 29.6903 29.5923 29.4236 29.1601 28.7799 28.2656 27.6052 26.7937 25.8332 24.7333 23.5109 22.1889 20.7958 19.3632 17.9244 16.5114 15.1523 13.8677 12.6665 11.5425 
0 1.71749 3.44996 5.20199 6.96926 8.74111 10.5027 12.237 13.9264 15.5546 17.107 18.5724 19.9432 21.216 22.3916 23.475 24.4752 25.404 26.2756 27.1052 27.908 28.6966 29.48 30.2611 31.0337 31.7808 32.4836 33.1596 33.8249 34.4842 35.1336 35.763 36.3584 36.9038 37.3827 37.7799 38.0824 38.2804 38.3678 38.3429 38.2083 37.9705 37.6401 37.2308 36.7583 36.2397 35.6911 35.1271 34.5578 33.9872 33.4104 32.8102 32.1643 31.467 30.7278 29.9673 29.2126 28.4945 27.8437 27.2888 26.8536 26.5556 26.4051 26.404 26.546 26.8165 27.1933 27.648 28.1476 28.6563 29.1385 29.5615 29.8995 30.1371 30.274 30.3303 30.3461 30.3533 30.363 30.3712 30.3628 30.3158 30.2045 30.0031 29.6876 29.2379 28.6402 27.8872 26.9791 25.9242 24.7382 23.4433 22.0677 20.6434 19.2043 17.7835 16.4101 15.1064 13.8828 12.7342 
0 1.71707 3.44681 5.19206 6.94734 8.70131 10.4389 12.1434 13.7977 15.3861 16.8954 18.3155 19.6402 20.8676 21.9998 23.0434 24.0086 24.9083 25.7578 26.573 27.3693 28.1594 28.952 29.7487 30.5422 31.3132 32.0414 32.7455 33.4437 34.1418 34.8368 35.5186 36.1732 36.784 37.3336 37.8057 38.1861 38.4636 38.6305 38.6836 38.6239 38.4569 38.1917 37.841 37.42 36.945 36.4325 35.8972 35.3504 34.7974 34.2354 33.649 33.0141 32.3228 31.5835 30.8162 30.0483 29.3109 28.6357 28.0522 27.5856 27.2549 27.0715 27.0387 27.1512 27.3956 27.7504 28.1879 28.6751 29.1767 29.6565 30.0818 30.4257 30.6723 30.8202 30.8882 30.9163 30.939 30.9702 31.0068 31.0342 31.0298 30.9668 30.8178 30.557 30.1626 29.6188 28.9164 28.0543 27.0394 25.8862 24.6166 23.2584 21.8438 20.407 18.9819 17.5987 16.2807 15.0397 13.8719 
0 1.71665 3.44366 5.18212 6.92536 8.66138 10.3749 12.0493 13.6682 15.2166 16.6823 18.0566 19.3344 20.5154 21.6032 22.6058 23.5345 24.4036 25.2292 26.028 26.8156 27.605 28.4042 29.214 30.0258 30.8181 31.5688 32.2984 33.0268 33.761 34.4988 35.2304 35.9415 36.6149 37.2326 37.7773 38.2332 38.5877 38.832 38.9612 38.9748 38.8769 38.6756 38.3825 38.0119 37.5799 37.103 36.5962 36.0717 35.5362 34.9892 34.4168 33.7936 33.1103 32.3742 31.6049 30.8298 30.0805 29.3892 28.7864 28.2982 27.9444 27.7376 27.6821 27.7736 27.9992 28.3382 28.7633 29.242 29.7386 30.2173 30.6448 30.9938 31.2477 31.4044 31.4816 31.5192 31.5541 31.6018 31.6605 31.7156 31.7442 31.7189 31.6108 31.3931 31.0423 30.5413 29.8794 29.0544 28.072 26.9461 25.6979 24.3551 22.9497 21.5164 20.0895 18.7001 17.3723 16.1188 14.9369 
0 1.71624 3.44062 5.17252 6.90414 8.62281 10.3131 11.9584 13.5429 15.0525 16.4759 17.8054 19.0376 20.1732 21.2174 22.1794 23.0719 23.9102 24.7114 25.4928 26.2704 27.0572 27.8608 28.6813 29.5086 30.3193 31.0897 31.8418 32.5972 33.3642 34.1411 34.9186 35.6821 36.4141 37.0956 37.7082 38.2352 38.6625 38.9799 39.1811 39.2643 39.2322 39.0917 38.8535 38.5313 38.1407 37.698 37.2189 36.7162 36.1982 35.6661 35.1078 34.4972 33.8237 33.0942 32.3277 31.5518 30.7982 30.0997 29.4872 28.9873 28.6208 28.4009 28.3325 28.412 28.6269 28.9572 29.3757 29.8502 30.3451 30.8244 31.2546 31.6084 31.8684 32.032 32.1165 32.1614 32.2052 32.2648 32.3392 32.414 32.466 32.4672 32.3882 32.2009 31.8811 31.4105 30.7778 29.9795 29.0207 27.9149 26.6827 25.3517 23.9539 22.5241 21.097 19.7041 18.3702 17.1087 15.9175 
0 1.71586 3.43776 5.1635 6.88419 8.58655 10.2549 11.8728 13.4249 14.8978 16.2812 17.5684 18.7572 19.8496 20.8522 21.7752 22.6327 23.441 24.2179 24.9816 25.7483 26.5311 27.3371 28.1658 29.0058 29.8318 30.6189 31.3903 32.1691 32.965 33.7769 34.5957 35.4067 36.1919 36.9316 37.6065 38.1988 38.6932 39.0781 39.3459 39.4936 39.5226 39.4389 39.2521 38.9752 38.6237 38.2136 37.7611 37.2796 36.7786 36.2613 35.7172 35.1199 34.4582 33.7383 32.9792 32.2085 31.4578 30.7604 30.1473 29.6456 29.2764 29.0533 28.9816 29.0581 29.2706 29.5993 30.0172 30.4923 30.989 31.4713 31.9057 32.2644 32.53 32.6996 32.79 32.8407 32.891 32.9589 33.0435 33.1307 33.1972 33.2148 33.1535 32.9847 32.6838 32.2318 31.6167 30.8348 29.8906 28.7973 27.5752 26.2518 24.859 23.4319 22.0052 20.6107 19.2736 18.0078 16.8114 
0 1.71551 3.4351 5.1551 6.86561 8.55274 10.2006 11.793 13.3148 14.7533 16.099 17.3464 18.4943 19.5459 20.5088 21.3947 22.2185 22.9976 23.7506 24.4962 25.2511 26.0283 26.8347 27.669 28.5187 29.357 30.1576 30.9448 31.7435 32.5643 33.4068 34.262 35.1153 35.9481 36.7403 37.4715 38.123 38.6784 39.1249 39.4537 39.6605 39.7458 39.7143 39.5751 39.3406 39.0255 38.6463 38.219 37.758 37.2738 36.7712 36.2414 35.6579 35.0093 34.3015 33.5536 32.7929 32.0513 31.3619 30.7559 30.2606 29.8972 29.6795 29.6129 29.6943 29.9117 30.2454 30.6685 31.1488 31.6511 32.1392 32.5795 32.9443 33.216 33.3915 33.4877 33.5437 33.5995 33.6733 33.7645 33.859 33.9334 33.9595 33.9071 33.7475 33.4557 33.0125 32.4058 31.6316 30.6943 29.6068 28.3896 27.0699 25.6797 24.2541 22.8279 21.433 20.0948 18.8273 17.6288 
0 1.71517 3.43256 5.14709 6.84786 8.52043 10.1487 11.7165 13.2092 14.6146 15.9241 17.133 18.2412 19.253 20.1772 21.0264 21.8167 22.5664 23.2949 24.0214 24.7628 25.5324 26.3367 27.1739 28.0302 28.8776 29.6883 30.488 31.303 32.1449 33.0139 33.9013 34.7922 35.6679 36.5076 37.2902 37.9959 38.6074 39.1107 39.4959 39.7576 39.8952 39.9127 39.8181 39.6233 39.3429 38.9929 38.5899 38.1488 37.6812 37.1931 36.6775 36.1081 35.4734 34.7793 34.0448 33.2973 32.5685 31.8915 31.2977 30.8142 30.4622 30.2556 30.1999 30.2918 30.5194 30.863 31.2957 31.7854 32.2967 32.7936 33.2423 33.6151 33.8945 34.0774 34.1805 34.243 34.3051 34.3847 34.4816 34.5815 34.6611 34.6922 34.6444 34.4893 34.2016 33.7622 33.1589 32.3878 31.4532 30.3679 29.1526 27.8344 26.4454 25.0205 23.5948 22.2002 20.862 19.5943 18.3956 
0 1.71415 3.42868 5.1371 6.82758 8.48509 10.0933 11.6362 13.0995 14.4716 15.7446 16.9149 17.9831 18.9549 19.8399 20.652 21.408 22.1273 22.8299 23.5356 24.2617 25.0213 25.821 26.658 27.5179 28.371 29.1885 29.9974 30.8253 31.6849 32.5768 33.4928 34.418 35.3331 36.217 37.0476 37.8044 38.469 39.0264 39.4655 39.78 39.9681 40.0329 39.9817 39.8257 39.5792 39.2581 38.8792 38.4579 38.0069 37.5336 37.0324 36.4774 35.8569 35.1771 34.4566 33.7229 33.0077 32.3441 31.7634 31.2928 30.9535 30.7592 30.7155 30.8191 31.0582 31.4131 31.8569 32.3574 32.8795 33.3868 33.8459 34.2289 34.5182 34.7108 34.8232 34.8948 34.9653 35.053 35.1574 35.2643 35.3506 35.3878 35.3459 35.1961 34.9134 34.4787 33.8799 33.1128 32.1819 31.1002 29.888 28.5726 27.1861 25.7634 24.3395 22.9465 21.6095 20.3428 19.1449 
0 1.70935 3.4174 5.1164 6.79372 8.43389 10.0205 11.5377 12.9716 14.3112 15.5494 16.6832 17.7145 18.6496 19.4991 20.2777 21.0031 21.6952 22.3746 23.0614 23.7732 24.523 25.3169 26.1519 27.0126 27.8683 28.6893 29.5039 30.341 31.2142 32.125 33.0653 34.0202 34.9703 35.8939 36.7684 37.5724 38.2865 38.8949 39.3853 39.7505 39.9875 40.0986 40.0904 39.9734 39.7613 39.4701 39.1165 38.7166 38.2837 37.8269 37.3417 36.8027 36.1978 35.5331 34.8271 34.1071 33.4047 32.7529 32.1829 31.722 31.3915 31.2051 31.1686 31.2789 31.5244 31.8854 32.3354 32.8425 33.3716 33.8866 34.3541 34.7463 35.0456 35.2485 35.3714 35.453 35.5331 35.6296 35.7422 35.8568 35.9503 35.9945 35.9595 35.8167 35.5412 35.114 34.5229 33.7641 32.8418 31.7688 30.5655 29.259 27.8812 26.4669 25.0508 23.6649 22.3343 21.0732 19.8803 
0 1.6979 3.39309 5.0769 6.73614 8.3552 9.91776 11.4083 12.8135 14.1228 15.33 16.4327 17.4334 18.3392 19.1613 19.9147 20.6177 21.2904 21.9535 22.6272 23.3288 24.0711 24.8601 25.6921 26.5512 27.4064 28.2277 29.0443 29.8865 30.7689 31.6934 32.6524 33.6311 34.6101 35.5673 36.4797 37.3252 38.0838 38.7386 39.2766 39.6894 39.9734 40.1296 40.164 40.0864 39.91 39.6505 39.3246 38.9488 38.5372 38.0998 37.6339 37.1137 36.5269 35.8791 35.1886 34.482 33.791 33.1483 32.585 32.1284 31.7999 31.6136 31.5755 31.6829 31.9248 32.2821 32.7288 33.2335 33.7616 34.2776 34.7482 35.1458 35.4525 35.6646 35.7974 35.8888 35.9777 36.082 36.2015 36.3222 36.4216 36.4718 36.4433 36.3079 36.0412 35.6242 35.0451 34.2999 33.3929 32.3366 31.1511 29.863 28.5039 27.1079 25.7095 24.3401 23.0247 21.7772 20.5965 
0 1.67777 3.35183 5.01295 6.64782 8.24098 9.77649 11.2394 12.6169 13.8994 15.0808 16.1597 17.1388 18.0255 18.8313 19.5712 20.2633 20.9275 21.5841 22.2529 22.9506 23.6898 24.4757 25.3045 26.1603 27.0119 27.8301 28.6452 29.4882 30.3745 31.3068 32.2779 33.2733 34.2736 35.2567 36.1994 37.0791 37.8754 38.5707 39.1511 39.6075 39.9354 40.1351 40.2114 40.1736 40.0344 39.8089 39.5138 39.1656 38.7791 38.3654 37.9227 37.4252 36.8599 36.2317 35.5582 34.8656 34.1849 33.5485 32.9874 32.5289 32.1946 31.9989 31.9486 32.0416 32.2678 32.609 33.0402 33.531 34.0478 34.5557 35.022 35.4194 35.7297 35.9484 36.0896 36.1891 36.2848 36.3946 36.518 36.6418 36.744 36.7975 36.7735 36.6448 36.3875 35.983 35.4199 34.6941 33.8098 32.7793 31.622 30.3639 29.0356 27.6706 26.3022 24.9612 23.672 22.4484 21.2894 
0 1.64775 3.29124 4.92116 6.5245 8.08634 9.59148 11.0257 12.3771 13.6365 14.7986 15.8621 16.8301 17.7097 18.5123 19.2522 19.947 20.6155 21.2774 21.9512 22.6529 23.3942 24.1799 25.0058 25.8565 26.7017 27.5137 28.3235 29.1628 30.0476 30.9812 31.9568 32.9606 33.9734 34.9734 35.9373 36.8425 37.6682 38.3965 39.013 39.5078 39.8757 40.1161 40.2332 40.2353 40.1345 39.9454 39.6843 39.3678 39.0108 38.6254 38.2106 37.7402 37.2006 36.5954 35.9414 35.2639 34.5931 33.9611 33.3984 32.9323 32.5847 32.3706 32.2975 32.3644 32.5623 32.8744 33.2773 33.7421 34.2362 34.7261 35.1798 35.5704 35.8795 36.1015 36.2485 36.3538 36.4537 36.5653 36.6887 36.8112 36.9117 36.9644 36.9418 36.8177 36.5691 36.1784 35.6345 34.9335 34.0795 33.084 31.9659 30.75 29.4657 28.145 26.8203 25.5209 24.2704 23.0822 21.9555 
0 1.60733 3.21034 4.80011 6.3644 7.88929 9.3606 10.7652 12.0919 13.3325 14.482 15.5393 16.5073 17.3928 18.206 18.9605 19.6723 20.3591 21.0387 21.7283 22.4425 23.1917 23.9803 24.8041 25.6483 26.4845 27.2873 28.0881 28.9191 29.7966 30.7245 31.6966 32.6997 33.7154 34.722 35.6968 36.6175 37.4631 38.2157 38.8605 39.3873 39.7902 40.0679 40.2237 40.2653 40.2038 40.0533 39.8294 39.5485 39.2257 38.8733 38.4913 38.053 37.5435 36.9654 36.3341 35.6739 35.014 34.3855 33.8188 33.3409 32.9741 32.7338 32.6286 32.6589 32.8171 33.0884 33.451 33.8779 34.3384 34.8006 35.2335 35.6106 35.9133 36.1349 36.2849 36.3931 36.4937 36.6032 36.7217 36.8375 36.9308 36.9776 36.9519 36.829 36.5875 36.2108 35.6883 35.0165 34.1992 33.2474 32.1788 31.017 29.7896 28.527 27.2596 26.0153 24.8164 23.6756 22.5924 
0 1.55662 3.10935 4.65014 6.16798 7.65033 9.08443 10.4584 11.7622 12.9881 14.1318 15.192 16.1712 17.0751 17.9128 18.6964 19.4398 20.1585 20.8684 21.5844 22.3196 23.0828 23.8777 24.7001 25.5365 26.3612 27.1519 27.9404 28.7585 29.6229 30.5379 31.4981 32.4911 33.4991 34.5014 35.4761 36.4012 37.2562 38.0233 38.6879 39.2392 39.6711 39.9816 40.1734 40.2533 40.2315 40.1211 39.9373 39.6958 39.4115 39.097 38.7525 38.351 37.8764 37.3299 36.7255 36.0858 35.4389 34.815 34.2436 33.7518 33.3619 33.0902 32.9461 32.9315 33.041 33.2615 33.5736 33.9527 34.3701 34.7958 35.2002 35.5576 35.8491 36.0664 36.2164 36.3246 36.4223 36.5252 36.6335 36.7368 36.8169 36.8516 36.8174 36.6914 36.454 36.09 35.5898 34.9503 34.1749 33.2741 32.2643 31.1672 30.0087 28.8168 27.6197 26.4433 25.3084 24.2267 23.198 
0 1.4963 2.98957 4.47312 5.93758 7.3722 8.76591 10.1084 11.3907 12.606 13.7502 14.8219 15.8226 16.7569 17.6323 18.4584 19.2468 20.0104 20.7623 21.5151 22.2792 23.062 23.8663 24.6881 25.5157 26.3266 27.1025 27.8754 28.6763 29.5218 30.4168 31.3566 32.3297 33.3194 34.3063 35.2692 36.1872 37.0405 37.8116 38.4864 39.054 39.5081 39.8462 40.0704 40.1865 40.204 40.1349 39.9935 39.7947 39.5529 39.2805 38.9782 38.6181 38.1831 37.673 37.0999 36.485 35.8546 35.2379 34.6635 34.158 33.7439 33.4382 33.2514 33.187 33.2415 33.4043 33.6586 33.9821 34.349 34.7312 35.1009 35.4332 35.709 35.9187 36.0657 36.1708 36.2622 36.3541 36.447 36.5316 36.5919 36.6082 36.5592 36.4249 36.1877 35.834 35.3556 34.7497 34.0198 33.1755 32.2317 31.2084 30.1289 29.0187 27.9034 26.8065 25.7468 24.735 23.771 
0 1.42748 2.85319 4.2722 5.67716 7.05944 8.40998 9.72013 10.9823 12.1906 13.3409 14.4315 15.4629 16.4383 17.3627 18.2433 19.0887 19.9086 20.713 21.5112 22.3113 23.1187 23.9351 24.7571 25.5747 26.3698 27.1286 27.8828 28.6623 29.4835 30.3516 31.2627 32.2065 33.1675 34.1276 35.0672 35.9663 36.8064 37.5708 38.2458 38.821 39.2899 39.6497 39.902 40.0517 40.1072 40.0798 39.9823 39.8288 39.6329 39.4065 39.1501 38.8355 38.4447 37.9758 37.4391 36.8539 36.245 35.6398 35.066 34.5497 34.1133 33.7742 33.5441 33.4282 33.4251 33.5267 33.7189 33.9822 34.2936 34.6275 34.9579 35.261 35.5177 35.7166 35.858 35.9575 36.0393 36.116 36.1884 36.2485 36.2826 36.2736 36.2036 36.0551 35.8131 35.4662 35.0075 34.435 33.7522 32.9678 32.0953 31.1523 30.1598 29.1402 28.1161 27.1084 26.1336 25.2011 24.3106 
0 1.35166 2.70314 4.05158 5.392 6.71814 8.02319 9.30037 10.5435 11.7475 12.9085 14.0242 15.094 16.1189 17.1018 18.0466 18.9588 19.8444 20.7096 21.5606 22.4023 23.2383 24.069 24.8915 25.6982 26.4756 27.2152 27.948 28.7023 29.4942 30.329 31.2037 32.1091 33.0314 33.9541 34.859 35.7279 36.5436 37.2906 37.9558 38.5296 39.0055 39.3807 39.6561 39.836 39.9278 39.9415 39.8889 39.7825 39.6351 39.4576 39.2501 38.9846 38.642 38.2189 37.7238 37.1741 36.5924 36.0046 35.4372 34.9153 34.4611 34.0925 33.8221 33.6567 33.597 33.6374 33.7667 33.9684 34.2222 34.5053 34.7939 35.0652 35.3002 35.4862 35.6198 35.7114 35.7809 35.8388 35.8861 35.9162 35.9179 35.8773 35.7796 35.6107 35.3584 35.0137 34.5715 34.0306 33.3946 32.6713 31.8727 31.0143 30.114 29.1913 28.2655 27.3544 26.4719 25.6261 24.8165 
0 1.27063 2.54291 3.8163 5.08841 6.35557 7.61336 8.85705 10.0819 11.2837 12.4587 13.604 14.7176 15.7985 16.8467 17.863 18.849 19.8069 20.7391 21.648 22.5356 23.4028 24.2492 25.0724 25.8673 26.6254 27.344 28.0529 28.7789 29.537 30.3328 31.1641 32.023 32.8975 33.7727 34.6326 35.4607 36.2414 36.9606 37.6065 38.17 38.6451 39.029 39.3223 39.5286 39.6541 39.7078 39.6998 39.6416 39.5442 39.4176 39.2614 39.0475 38.7564 38.3834 37.9352 37.4269 36.8792 36.316 35.7623 35.2423 34.7775 34.3862 34.0817 33.8723 33.7606 33.7435 33.8125 33.9543 34.1515 34.384 34.6301 34.8687 35.0808 35.2523 35.3766 35.4588 35.5138 35.5501 35.5684 35.5638 35.5277 35.4495 35.3178 35.1223 34.8538 34.5062 34.0759 33.5632 32.9716 32.3085 31.5841 30.8117 30.0063 29.184 28.3607 27.5509 26.7659 26.0121 25.2887 
0 1.18639 2.37641 3.57198 4.77343 5.97982 7.18925 8.39904 9.60606 10.8068 11.9977 13.1753 14.3359 15.4765 16.594 17.6859 18.75 19.7842 20.7869 21.7567 22.6922 23.592 24.4547 25.2783 26.0605 26.798 27.4941 28.1772 28.8721 29.5926 30.3445 31.1265 31.932 32.7507 33.57 34.3757 35.1534 35.8896 36.5717 37.1892 37.7341 38.201 38.5871 38.8929 39.1212 39.2774 39.369 39.4049 39.3947 39.348 39.2734 39.1694 39.0089 38.7719 38.4527 38.0561 37.5953 37.0886 36.5581 36.027 35.5181 35.0523 34.6477 34.3183 34.0734 33.9176 33.8499 33.8647 33.9514 34.0958 34.2804 34.4858 34.6923 34.8814 35.038 35.1522 35.224 35.2631 35.2757 35.2622 35.2192 35.1407 35.0197 34.8485 34.6204 34.3299 33.9734 33.5499 33.0606 32.5096 31.9035 31.2511 30.5635 29.8526 29.1312 28.4118 27.7054 27.0205 26.3615 25.7275 
0 1.10106 2.20778 3.32457 4.45454 5.59951 6.76011 7.93578 9.1249 10.3249 11.5322 12.7426 13.9511 15.1523 16.3403 17.5088 18.6519 19.7633 20.8373 21.8684 22.8521 23.7845 24.6631 25.4864 26.2549 26.9707 27.6432 28.299 28.9605 29.6407 30.3449 31.0728 31.8193 32.576 33.3322 34.0761 34.7957 35.4792 36.1161 36.6975 37.2164 37.668 38.0502 38.3631 38.6089 38.7922 38.9192 38.9972 39.034 39.0377 39.0148 38.9633 38.8567 38.6755 38.4129 38.0723 37.6646 37.2063 36.717 36.218 35.7308 35.2752 34.8689 34.5261 34.2571 34.0679 33.9598 33.9292 33.9688 34.0667 34.2084 34.3767 34.5535 34.7209 34.8629 34.967 35.0282 35.0511 35.0389 34.9917 34.9077 34.7835 34.6155 34.4 34.1341 33.8159 33.4448 33.0221 32.5505 32.0345 31.4804 30.8956 30.2889 29.6695 29.0468 28.4297 27.8259 27.2409 26.6773 26.1333 
0 1.01682 2.04125 3.08017 4.13938 5.22342 6.3354 7.47686 8.6477 9.84615 11.0688 12.3108 13.5655 14.8254 16.0817 17.3248 18.5447 19.7311 20.8741 21.9647 22.9947 23.9582 24.8512 25.6732 26.4271 27.1205 27.7684 28.3959 29.0226 29.6602 30.3142 30.9848 31.6684 32.3584 33.0465 33.723 34.3784 35.003 35.5883 36.1271 36.6137 37.0442 37.4169 37.7317 37.9906 38.1972 38.3564 38.4739 38.5559 38.6084 38.6361 38.6359 38.5827 38.4578 38.2537 37.9726 37.6234 37.2203 36.7807 36.324 35.8698 35.4367 35.0417 34.699 34.4194 34.21 34.0737 34.0094 34.0119 34.0722 34.1781 34.3148 34.4659 34.6141 34.7429 34.8376 34.8888 34.8958 34.8588 34.7775 34.6512 34.4793 34.2615 33.9981 33.69 33.3389 32.9476 32.5195 32.059 31.5714 31.0626 30.5389 30.007 29.4734 28.9443 28.4252 27.9204 27.4326 26.9622 26.5069 
0 0.935785 1.88098 2.84473 3.83541 4.86014 5.9244 7.03171 8.18346 9.37871 10.6142 11.8843 13.1813 14.4953 15.8148 17.1271 18.4184 19.6745 20.8818 22.0272 23.0999 24.0913 24.9966 25.8157 26.5541 27.2244 27.8473 28.4458 29.0369 29.6311 30.2334 30.845 31.4635 32.0843 32.7012 33.307 33.8942 34.4558 34.9851 35.4766 35.9261 36.3307 36.6891 37.0013 37.2691 37.495 37.6827 37.8367 37.961 38.0598 38.1358 38.1847 38.1834 38.1141 37.9695 37.7503 37.4638 37.1222 36.7405 36.3359 35.9261 35.5284 35.1587 34.8306 34.5553 34.3405 34.1904 34.1058 34.0835 34.1168 34.1958 34.3081 34.4386 34.5712 34.689 34.7759 34.8185 34.8109 34.7502 34.6354 34.4669 34.2468 33.9779 33.6643 33.3108 32.9226 32.5058 32.0662 31.61 31.1433 30.6719 30.201 29.7356 29.2798 28.8368 28.4088 27.9969 27.601 27.2194 26.849 
0 0.859954 1.73085 2.62387 3.54969 4.51778 5.53582 6.6092 7.74068 8.93014 10.1745 11.4676 12.8004 14.1612 15.5362 16.9094 18.2637 19.5815 20.8453 22.039 23.1486 24.1635 25.078 25.8922 26.6142 27.2612 27.8588 28.4282 28.9836 29.5342 30.0848 30.6372 31.1904 31.7416 32.2865 32.8204 33.3381 33.8347 34.3057 34.7473 35.1566 35.5319 35.8723 36.1781 36.4507 36.692 36.9045 37.091 37.2541 37.3958 37.5167 37.6116 37.6594 37.6441 37.5585 37.4026 37.1821 36.9071 36.5906 36.2474 35.8932 35.5435 35.213 34.9147 34.6592 34.4548 34.3065 34.2162 34.1826 34.201 34.2636 34.3597 34.4761 34.5976 34.7076 34.7888 34.825 34.8049 34.7225 34.5762 34.3672 34.0998 33.7801 33.4155 33.0146 32.5863 32.1395 31.6828 31.2239 30.7701 30.3271 29.8996 29.4909 29.1029 28.7362 28.3901 28.0626 27.751 27.4515 27.1602 
0 0.791121 1.59438 2.42262 3.28852 4.2036 5.17749 6.21727 7.32698 8.50728 9.75527 11.0644 12.4247 13.8229 15.2428 16.6659 18.0723 19.441 20.7516 21.9847 23.1239 24.1567 25.0763 25.8835 26.5882 27.2117 27.784 28.3245 28.8448 29.3527 29.853 30.3477 30.8372 31.3203 31.7948 32.2582 32.7073 33.1395 33.5521 33.9431 34.311 34.655 34.9751 35.2716 35.5456 35.7985 36.0317 36.2467 36.4443 36.6245 36.7862 36.9229 37.0162 37.052 37.0239 36.9313 36.7786 36.5742 36.3287 36.055 35.7666 35.477 35.1993 34.9454 34.7254 34.5473 34.4166 34.3361 34.3056 34.3221 34.3794 34.4686 34.5781 34.6938 34.7997 34.8782 34.9106 34.881 34.7802 34.6054 34.3589 34.0468 33.678 33.2633 32.8147 32.3443 31.8641 31.3851 30.9169 30.4678 30.0439 29.6493 29.2862 28.9546 28.6528 28.3775 28.124 27.8871 27.6612 27.4412 
0 0.730781 1.47447 2.24519 3.05716 3.92365 4.85594 5.86256 6.94872 8.11582 9.36123 10.6782 12.0559 13.4798 14.9321 16.392 17.8372 19.2441 20.5895 21.8516 23.0117 24.0556 24.9759 25.7734 26.4599 27.06 27.6075 28.1197 28.6061 29.0731 29.5253 29.9654 30.3946 30.8133 31.2213 31.6176 32.0015 32.3721 32.7285 33.0704 33.3975 33.7101 34.0087 34.2938 34.5666 34.8276 35.0775 35.3165 35.5438 35.7578 35.9552 36.1287 36.2629 36.346 36.3726 36.342 36.2577 36.1261 35.9563 35.7587 35.5446 35.3257 35.1132 34.9176 34.748 34.6117 34.5143 34.4589 34.446 34.4738 34.5374 34.6294 34.7398 34.8556 34.9618 35.0409 35.0728 35.0372 34.9219 34.723 34.4433 34.0905 33.6759 33.2135 32.7182 32.2052 31.6893 31.1838 30.7004 30.2481 29.8338 29.4612 29.1318 28.8442 28.5946 28.3775 28.1861 28.0128 27.8502 27.6923 
0 0.680058 1.37333 2.09471 2.85959 3.6825 4.57608 5.55008 6.6107 7.76006 8.99587 10.3113 11.6951 13.1318 14.6023 16.0842 17.5533 18.984 20.3509 21.6303 22.8015 23.8492 24.765 25.5501 26.2175 26.7944 27.3176 27.8025 28.2566 28.6854 29.0931 29.4828 29.8567 30.2166 30.5637 30.8988 31.223 31.5369 31.8415 32.1377 32.4265 32.709 32.9862 33.2592 33.5285 33.7947 34.0575 34.3159 34.5679 34.8102 35.0378 35.2425 35.4122 35.538 35.6155 35.6443 35.6272 35.5694 35.4779 35.3611 35.2283 35.089 34.9524 34.8274 34.7216 34.6415 34.5921 34.5763 34.5951 34.6471 34.7286 34.8333 34.9524 35.0745 35.1856 35.269 35.3042 35.2667 35.1415 34.9237 34.616 34.2277 33.7723 33.2659 32.7263 32.1716 31.619 31.0841 30.58 30.1174 29.7034 29.3422 29.0344 28.7777 28.5669 28.3947 28.2524 28.1305 28.02 27.9137 
0 0.639613 1.29224 1.97306 2.69812 3.48283 4.3408 5.28276 6.31575 7.44255 8.66131 9.96532 11.3431 12.7788 14.2524 15.7406 17.2178 18.657 20.0312 21.3153 22.4873 23.5309 24.437 25.2068 25.8542 26.4084 26.9078 27.3666 27.7906 28.1843 28.5518 28.8965 29.2216 29.5296 29.8231 30.1046 30.3763 30.6405 30.8993 31.155 31.4095 31.6646 31.9219 32.1827 32.4474 32.7163 32.9883 33.2617 33.5331 33.798 34.0498 34.28 34.4795 34.6424 34.7661 34.8507 34.8984 34.9133 34.901 34.868 34.8213 34.7683 34.7163 34.672 34.6417 34.6304 34.6422 34.6793 34.7426 34.831 34.9413 35.0681 35.2039 35.3384 35.4591 35.5508 35.593 35.5581 35.4282 35.197 34.8677 34.4502 33.9596 33.4143 32.8344 32.2401 31.6509 31.0845 30.5557 30.0763 29.6543 29.294 28.9961 28.7574 28.572 28.4311 28.3244 28.2412 28.1708 28.1051 
0 0.609564 1.23144 1.88057 2.57318 3.32513 4.15065 5.06117 6.06442 7.16381 8.35797 9.64054 11.0002 12.4209 13.8824 15.361 16.8303 18.2625 19.6298 20.906 22.0685 23.0999 23.991 24.7428 25.3694 25.9012 26.3776 26.8117 27.2078 27.57 27.9022 28.208 28.4912 28.7553 29.0039 29.2403 29.4681 29.6907 29.9113 30.1328 30.3583 30.5899 30.8298 31.0792 31.3388 31.6084 31.8864 32.1704 32.4562 32.738 33.0082 33.2577 33.481 33.6754 33.84 33.9756 34.0845 34.1699 34.236 34.2875 34.3296 34.3675 34.4063 34.4508 34.5052 34.5732 34.6571 34.7586 34.8778 35.0134 35.1623 35.3199 35.4795 35.6322 35.7672 35.8711 35.9243 35.8963 35.7669 35.5286 35.1841 34.7442 34.2251 33.6469 33.0313 32.4006 31.7763 31.1776 30.6209 30.1194 29.6819 29.3132 29.0142 28.7815 28.6084 28.4855 28.4015 28.3443 28.3023 28.266 
0 0.589403 1.18993 1.81582 2.48299 3.20736 4.00343 4.88308 5.85459 6.92196 8.08438 9.33599 10.6659 12.0584 13.4935 14.9473 16.3935 17.804 19.1508 20.4073 21.5502 22.5621 23.4332 24.1642 24.7693 25.2791 25.7332 26.1439 26.5145 26.8488 27.1506 27.4239 27.6727 27.9011 28.1135 28.3141 28.5072 28.6969 28.8872 29.0818 29.284 29.4968 29.7222 29.9619 30.2164 30.4852 30.7666 31.0573 31.3527 31.6461 31.9288 32.1919 32.4332 32.6532 32.8531 33.0346 33.2002 33.3526 33.4949 33.6302 33.7618 33.8928 34.0264 34.165 34.311 34.466 34.631 34.806 34.9903 35.182 35.3779 35.5737 35.7635 35.9397 36.0932 36.2128 36.2806 36.2638 36.14 35.9003 35.5474 35.092 34.5512 33.9462 33.3003 32.6371 31.9798 31.349 30.7626 30.2349 29.7758 29.3907 29.0809 28.8432 28.6708 28.5539 28.4804 28.4374 28.4125 28.3952 
0 0.577911 1.16534 1.77538 2.42326 3.12458 3.89384 4.74313 5.68116 6.71246 7.83686 9.04919 10.3392 11.6919 13.0878 14.5036 15.9134 17.2894 18.6038 19.83 20.9448 21.9305 22.7771 23.485 24.068 24.5561 24.9885 25.3769 25.7242 26.034 26.31 26.5565 26.7777 26.9783 27.1629 27.3363 27.5033 27.6685 27.8363 28.0109 28.1958 28.3943 28.6086 28.8404 29.0902 29.3572 29.6396 29.9339 30.2346 30.5348 30.825 31.0965 31.3505 31.5907 31.8204 32.0427 32.2603 32.4756 32.6907 32.9076 33.1278 33.3525 33.5825 33.8184 34.0603 34.3076 34.5597 34.8148 35.0711 35.3257 35.5752 35.815 36.0401 36.2441 36.4195 36.558 36.6435 36.6415 36.5277 36.2921 35.9366 35.4721 34.9161 34.2904 33.6192 32.9277 32.2399 31.5779 30.961 30.4042 29.9188 29.5109 29.1825 28.9309 28.7494 28.6281 28.5548 28.516 28.4985 28.491 
0 0.573075 1.15373 1.7536 2.38691 3.06868 3.81313 4.63244 5.53564 6.52776 7.60931 8.77593 10.0183 11.3222 12.6691 14.0368 15.3998 16.7314 18.0042 19.1921 20.2721 21.2265 22.0451 22.728 23.2882 23.7548 24.166 24.5328 24.8584 25.1462 25.4002 25.6244 25.8236 26.0026 26.1661 26.3194 26.4674 26.6149 26.7666 26.9268 27.0993 27.2874 27.4934 27.7189 27.9644 28.2291 28.5108 28.8059 29.1087 29.4118 29.7054 29.9811 30.2435 30.4994 30.7544 31.0129 31.2781 31.5522 31.8369 32.1326 32.4395 32.7569 33.0835 33.4177 33.7573 34.0999 34.4425 34.7819 35.1145 35.4365 35.7436 36.0316 36.2954 36.5301 36.7301 36.8896 36.995 37.0106 36.9102 36.6828 36.3294 35.8608 35.2946 34.6531 33.9613 33.2449 32.5291 31.8372 31.1894 30.602 30.0871 29.6521 29.2995 29.0274 28.8295 28.6963 28.6154 28.5732 28.5558 28.551 
0 0.572004 1.14947 1.74238 2.36379 3.02795 3.74873 4.53827 5.40583 6.35697 7.39291 8.51015 9.70033 10.9504 12.2428 13.5564 14.8669 16.1483 17.3742 18.519 19.5602 20.4803 21.2688 21.9255 22.4624 22.9074 23.2973 23.643 23.9476 24.2148 24.4485 24.653 24.8332 24.994 25.1403 25.2773 25.4102 25.5439 25.6831 25.8322 25.995 26.1747 26.3738 26.5938 26.8351 27.0969 27.3768 27.671 27.9737 28.2772 28.5714 28.8486 29.1166 29.3853 29.6625 29.954 30.2637 30.5938 30.9453 31.3176 31.7093 32.1179 32.5402 32.9725 33.4102 33.8488 34.2831 34.7083 35.119 35.5102 35.877 36.2148 36.5191 36.7859 37.0116 37.1931 37.3195 37.354 37.2688 37.0517 36.7031 36.2333 35.6599 35.0055 34.2954 33.5563 32.8142 32.0932 31.4146 30.7959 30.2501 29.7855 29.4058 29.1097 28.8916 28.7422 28.6495 28.5995 28.578 28.572 
-0.00825892 0.563612 1.13879 1.72557 2.33579 2.9829 3.68038 4.44028 5.27213 6.18197 7.17173 8.23879 9.37579 10.5708 11.8073 13.0654 14.3219 15.5518 16.7294 17.8299 18.8312 19.716 20.4738 21.1037 21.6169 22.0401 22.4085 22.7329 23.0166 23.2633 23.4771 23.6627 23.8247 23.9682 24.0984 24.2203 24.3393 24.4602 24.5879 24.7267 24.8804 25.0522 25.2446 25.459 25.6957 25.9539 26.231 26.5232 26.8245 27.127 27.4204 27.6976 27.9697 28.2498 28.5479 28.8713 29.2245 29.6097 30.0272 30.4756 30.9518 31.4516 31.9697 32.5001 33.0361 33.571 34.0974 34.6086 35.0976 35.5583 35.9848 36.3723 36.7167 37.0152 37.2661 37.4691 37.616 37.669 37.5986 37.3914 37.0472 36.5758 35.9949 35.3271 34.5984 33.836 33.0668 32.3159 31.6056 30.9544 30.3765 29.8812 29.473 29.1515 28.9118 28.7449 28.639 28.5801 28.5534 28.5451 
-0.0594747 0.513652 1.08793 1.66996 2.27031 2.90162 3.57688 4.30806 5.10487 5.97382 6.91753 7.93424 9.01763 10.1568 11.3366 12.5382 13.7394 14.9165 16.0446 17.0997 18.0603 18.9091 19.6358 20.2387 20.7284 21.1299 21.4771 21.7808 22.0446 22.2725 22.4689 22.6383 22.7856 22.9158 23.034 23.1452 23.2546 23.3671 23.4872 23.6192 23.7668 23.9332 24.1205 24.3303 24.5627 24.8168 25.0901 25.3786 25.6763 25.9753 26.2653 26.5398 26.8136 27.1032 27.421 27.7756 28.1724 28.6136 29.0988 29.6253 30.1887 30.7826 31.3997 32.0315 32.6692 33.3033 33.9245 34.5238 35.0928 35.6237 36.1101 36.5468 36.9302 37.2587 37.5326 37.7546 37.9195 37.9884 37.93 37.7299 37.3869 36.9105 36.3183 35.6333 34.8818 34.0918 33.2912 32.5059 31.7594 31.0713 30.4571 29.927 29.4865 29.1361 28.8715 28.6843 28.5626 28.4925 28.4587 28.4463 
-0.180009 0.396773 0.972591 1.55232 2.14522 2.76304 3.41823 4.12258 4.8859 5.71511 6.61347 7.58009 8.60966 9.69244 10.8145 11.9582 13.1028 14.2254 15.3025 16.3109 17.2296 18.0418 18.737 19.3132 19.7799 20.1606 20.4876 20.7721 21.0183 21.2308 21.4141 21.5729 21.7118 21.8358 21.9496 22.058 22.1657 22.2773 22.397 22.5286 22.6757 22.841 23.0266 23.2338 23.4627 23.7123 23.9803 24.2626 24.5534 24.8451 25.1275 25.3953 25.6671 25.9632 26.2986 26.6835 27.124 27.6224 28.1775 28.7854 29.4397 30.1322 30.8531 31.5912 32.3352 33.0729 33.7927 34.4833 35.1344 35.7368 36.2831 36.7679 37.1881 37.5435 37.8367 38.0737 38.2525 38.3331 38.2825 38.0849 37.7382 37.2518 36.6429 35.9348 35.1547 34.331 33.4926 32.6667 31.8778 31.1467 30.4901 29.9194 29.4412 29.0567 28.7625 28.5505 28.4092 28.3243 28.28 28.2606 
-0.381104 0.202362 0.782819 1.36343 1.95213 2.55966 3.19785 3.87818 4.6105 5.40203 6.2566 7.17415 8.15037 9.1767 10.2405 11.3254 12.4121 13.4791 14.5039 15.4643 16.3403 17.1154 17.7791 18.3291 18.7738 19.1349 19.4433 19.7108 19.9428 20.1445 20.3205 20.4757 20.6145 20.7413 20.8604 20.9759 21.0919 21.2122 21.3403 21.4796 21.6329 21.8026 21.9904 22.1974 22.4238 22.6683 22.9289 23.2019 23.4818 23.7614 24.0312 24.2872 24.5523 24.851 25.2011 25.6145 26.0981 26.6541 27.2807 27.9724 28.7211 29.516 30.3448 31.1936 32.048 32.8932 33.7147 34.4989 35.2334 35.9075 36.5128 37.0437 37.4976 37.8757 38.1833 38.4302 38.6176 38.7047 38.6565 38.456 38.1003 37.598 36.9667 36.2299 35.4151 34.5517 33.6696 32.7971 31.9598 31.1799 30.4752 29.8584 29.3372 28.9136 28.5849 28.3436 28.1782 28.0744 28.0157 27.9854 
-0.661943 -0.0684729 0.520072 1.10519 1.69345 2.29453 2.91954 3.57952 4.28423 5.04108 5.8544 6.72487 7.64916 8.61989 9.62572 10.6518 11.6801 12.6907 13.6624 14.5743 15.4072 16.1451 16.7778 17.3025 17.7266 18.0701 18.3619 18.6152 18.8369 19.0328 19.2083 19.368 19.5157 19.6554 19.7905 19.924 20.0589 20.1982 20.3443 20.4996 20.6663 20.846 21.0401 21.2494 21.4737 21.7123 21.9632 22.2232 22.4875 22.7497 23.0011 23.2396 23.4928 23.7894 24.1502 24.5891 25.1139 25.7266 26.4246 27.2009 28.0452 28.9445 29.8833 30.8449 31.8118 32.7661 33.6906 34.5688 35.3863 36.1308 36.7927 37.3663 37.8496 38.2454 38.5617 38.8122 39.0023 39.09 39.0386 38.8296 38.4594 37.9362 37.2775 36.5071 35.6531 34.7457 33.8156 32.8923 32.0027 31.1701 30.4135 29.7468 29.1786 28.7121 28.3451 28.0705 27.8772 27.7504 27.6732 27.6279 
-1.01244 -0.40566 0.194464 0.787855 1.37971 1.97859 2.59477 3.23875 3.92003 4.64612 5.42172 6.24815 7.12302 8.04011 8.9894 9.95748 10.928 11.8825 12.8012 13.6647 14.4546 15.1559 15.7586 16.2594 16.6647 16.9927 17.2704 17.5126 17.7282 17.9242 18.1061 18.2784 18.4445 18.6072 18.7688 18.931 19.0956 19.2639 19.4371 19.6166 19.8034 19.9984 20.2024 20.4157 20.6384 20.8696 21.108 21.3511 21.5948 21.834 22.0611 22.276 22.5116 22.8007 23.1675 23.6278 24.1902 24.8567 25.6237 26.4828 27.4214 28.4237 29.4716 30.5451 31.6234 32.6855 33.7111 34.6812 35.5789 36.3903 37.1048 37.7162 38.2234 38.6309 38.9496 39.1974 39.3837 39.4659 39.4054 39.1828 38.7935 38.2455 37.556 36.7492 35.8537 34.9005 33.921 32.9457 32.0027 31.1164 30.3069 29.5892 28.9727 28.4615 28.0541 27.7438 27.5195 27.3664 27.267 27.2027 
-1.41581 -0.792684 -0.177713 0.427584 1.02707 1.62816 2.24018 2.87297 3.53566 4.23569 4.97799 5.76445 6.59352 7.46006 8.3554 9.26761 10.182 11.0816 11.9485 12.7644 13.5124 14.1784 14.7524 15.2312 15.62 15.9349 16.2012 16.4359 16.6499 16.8515 17.0467 17.2396 17.4329 17.6282 17.8263 18.0272 18.2311 18.4375 18.6462 18.8569 19.0696 19.2842 19.5008 19.7194 19.9399 20.1621 20.3849 20.6068 20.825 21.0355 21.2324 21.418 21.6299 21.9059 22.2731 22.7494 23.3441 24.0593 24.8904 25.8274 26.8556 27.9564 29.1086 30.2892 31.4741 32.6391 33.7607 34.8174 35.7899 36.6624 37.4234 38.0665 38.5912 39.0039 39.3182 39.5567 39.7327 39.8032 39.7285 39.4877 39.0759 38.5007 37.7791 36.9356 35.9992 35.0014 33.9744 32.9496 31.9558 31.0185 30.1585 29.3918 28.7286 28.1737 27.726 27.3792 27.1224 26.9406 26.8159 26.7288 
-1.85083 -1.20883 -0.576202 0.044271 0.655184 1.26278 1.87538 2.50204 3.15139 3.83064 4.54484 5.29628 6.08416 6.90436 7.74949 8.60909 9.47008 10.3173 11.1344 11.9047 12.6127 13.2451 13.7925 14.2515 14.6262 14.9308 15.1888 15.4195 15.6364 15.8491 16.0641 16.2849 16.5135 16.7498 16.993 17.2413 17.4926 17.7447 17.9956 18.2432 18.4862 18.7235 18.9544 19.1786 19.3961 19.6069 19.8108 20.0074 20.1952 20.3717 20.5328 20.6834 20.8661 21.1229 21.4843 21.9699 22.5902 23.3468 24.2345 25.2415 26.351 27.5419 28.79 30.0691 31.3518 32.611 33.8201 34.9548 35.9937 36.9193 37.719 38.3863 38.9213 39.3321 39.6355 39.858 40.0174 40.0706 39.9768 39.7145 39.2782 38.6752 37.9225 37.0448 36.0711 35.0334 33.9646 32.8963 31.8582 30.8762 29.9719 29.1617 28.4567 27.8618 27.3764 26.9946 26.7053 26.4936 26.3413 26.2284 
-2.29392 -1.63122 -0.978758 -0.340415 0.285245 0.903307 1.52105 2.14664 2.78806 3.45217 4.14397 4.86604 5.61817 6.39717 7.19685 8.0082 8.81973 9.61804 10.3885 11.1161 11.7866 12.3879 12.9112 13.353 13.7164 14.0137 14.2665 14.4968 14.721 14.9499 15.1903 15.4455 15.716 16.0004 16.2958 16.5981 16.9033 17.2069 17.5047 17.7932 18.0694 18.3311 18.5768 18.8061 19.0189 19.2158 19.3974 19.5646 19.7174 19.8551 19.9755 20.086 20.234 20.4658 20.8148 21.3023 21.9397 22.7286 23.6628 24.729 25.9084 27.1774 28.5091 29.8741 31.2423 32.5833 33.8679 35.0692 36.1637 37.1322 37.9613 38.6441 39.1816 39.5834 39.8692 40.0695 40.2065 40.2372 40.1205 39.8344 39.3731 38.7437 37.9633 37.0563 36.052 34.9826 33.8809 32.779 31.7067 30.6901 29.7512 28.9066 28.1675 27.5393 27.0214 26.6079 26.288 26.0466 25.8655 25.7245 
-2.72091 -2.0365 -1.36286 -0.704715 -0.0616636 0.570266 1.19727 1.82656 2.46537 3.12005 3.79542 4.49417 5.21658 5.96025 6.72008 7.48842 8.25537 9.0092 9.73699 10.4255 11.0619 11.6353 12.1375 12.5649 12.92 13.213 13.4639 13.6976 13.9331 14.1827 14.4535 14.7482 15.0661 15.4038 15.7564 16.1176 16.4809 16.8395 17.1872 17.5186 17.8291 18.1154 18.3754 18.6083 18.8142 18.9943 19.1504 19.2844 19.3982 19.493 19.5685 19.6345 19.7431 19.9442 20.2738 20.7552 21.4002 22.2104 23.1789 24.2911 25.5261 26.8581 28.2578 29.693 31.1309 32.5383 33.8835 35.1372 36.2741 37.2736 38.1213 38.8102 39.342 39.7278 39.9899 40.1624 40.2716 40.2755 40.1328 39.8218 39.3366 38.6841 37.8814 36.9528 35.9274 34.8372 33.7149 32.5924 31.4992 30.4615 29.5009 28.6339 27.8716 27.2192 26.6761 26.2365 25.8894 25.62 25.4099 25.2394 
-3.1086 -2.40241 -1.70718 -1.0282 -0.365964 0.282457 0.922175 1.55941 2.20052 2.85127 3.51611 4.19774 4.89675 5.61139 6.33754 7.06881 7.79675 8.5113 9.20125 9.85499 10.4613 11.0103 11.4948 11.9111 12.2609 12.5528 12.8051 13.0457 13.2962 13.5704 13.8756 14.2137 14.5826 14.9772 15.3901 15.8129 16.2363 16.6514 17.0498 17.4241 17.7684 18.0782 18.3508 18.585 18.7815 18.9419 19.0692 19.1668 19.2383 19.2868 19.3139 19.3322 19.3972 19.5624 19.866 20.3327 20.975 21.7946 22.7836 23.9264 25.2004 26.5779 28.0273 29.5142 31.0033 32.459 33.8476 35.1376 36.3021 37.3193 38.174 38.8592 39.377 39.74 39.9727 40.1126 40.1894 40.1629 39.9924 39.6566 39.1499 38.4793 37.6617 36.7211 35.6863 34.5888 33.4607 32.3332 31.2353 30.1924 29.2256 28.3507 27.5782 26.9131 26.3543 25.8957 25.5265 25.2319 24.994 24.7936 
-3.43601 -2.709 -1.99277 -1.29294 -0.61073 0.0558469 0.710852 1.35947 2.00715 2.65892 3.31879 3.98931 4.6712 5.36325 6.06216 6.76266 7.45768 8.13869 8.79613 9.42002 10.0006 10.5293 10.9996 11.4082 11.756 12.05 12.3071 12.5579 12.8268 13.1288 13.4712 13.8553 14.2774 14.7304 15.2048 15.6895 16.173 16.6439 17.0918 17.5074 17.8834 18.2143 18.4967 18.7295 18.9135 19.0514 19.147 19.2055 19.2321 19.2319 19.2085 19.1765 19.1948 19.3195 19.5908 20.0344 20.6635 21.4796 22.4744 23.6311 24.926 26.3297 27.8087 29.3269 30.8469 32.3312 33.7442 35.0531 36.2293 37.2501 38.0998 38.7712 39.267 39.6009 39.7994 39.9026 39.9435 39.8839 39.6846 39.3252 38.8007 38.1181 37.2944 36.3531 35.3223 34.2326 33.1153 32.0004 30.9157 29.8856 28.9298 28.0633 27.2956 26.6307 26.0671 25.5982 25.2132 24.8976 24.6341 24.4046 
-3.68544 -2.93959 -2.20403 -1.48444 -0.782567 -0.0972688 0.574521 1.23695 1.89454 2.55149 3.21127 3.87613 4.54684 5.22253 5.90059 6.57672 7.24508 7.89857 8.52916 9.12843 9.6881 10.2008 10.6608 11.065 11.4141 11.7133 11.9785 12.2427 12.5329 12.8651 13.2467 13.678 14.1538 14.6652 15.2001 15.7453 16.2868 16.8109 17.3053 17.7589 18.1631 18.5116 18.8004 19.0284 19.1969 19.3093 19.371 19.3883 19.3685 19.3182 19.243 19.1594 19.1288 19.2093 19.4424 19.855 20.4604 21.2601 22.2456 23.3991 24.696 26.1058 27.5935 29.1217 30.6513 32.1436 33.5615 34.871 36.0426 37.0528 37.8855 38.5334 38.9997 39.299 39.4591 39.5225 39.5248 39.4305 39.2024 38.8216 38.2838 37.5965 36.7764 35.8465 34.834 33.7683 32.6793 31.5954 30.543 29.5444 28.6181 27.7772 27.0301 26.3794 25.8229 25.3534 24.96 24.6286 24.3427 24.0858 
-3.84324 -3.08159 -2.32942 -1.59227 -0.872222 -0.168851 0.519996 1.19748 1.86713 2.53236 3.19595 3.85979 4.52456 5.18959 5.85281 6.51073 7.1586 7.79058 8.40007 8.98008 9.52373 10.0248 10.4784 10.8819 11.2353 11.5429 11.8193 12.1 12.4139 12.7781 13.1997 13.6782 14.2069 14.7748 15.3677 15.97 16.5656 17.1387 17.675 18.162 18.5898 18.9514 19.2426 19.4622 19.6122 19.6968 19.7226 19.6976 19.6305 19.5298 19.4028 19.2674 19.1868 19.2203 19.4105 19.7847 20.3566 21.1276 22.089 23.2225 24.5028 25.8986 27.3741 28.8909 30.409 31.8887 33.2921 34.5843 35.7353 36.721 37.5252 38.1406 38.5706 38.8306 38.9494 38.9709 38.9328 38.8029 38.5469 38.1476 37.6018 36.9175 36.1111 35.205 34.2253 33.1998 32.1566 31.1223 30.1209 29.1728 28.2943 27.4965 26.7859 26.1638 25.6267 25.1669 24.7732 24.4319 24.1278 23.8462 
-3.90034 -3.12689 -2.36189 -1.61048 -0.874946 -0.155423 0.549431 1.24184 1.92441 2.59969 3.26979 3.93614 4.59922 5.25845 5.91215 6.55748 7.19062 7.80684 8.40081 8.96684 9.49933 9.99319 10.4444 10.8505 11.2115 11.5304 11.821 12.1208 12.4605 12.8577 13.3195 13.8441 14.4234 15.0445 15.6912 16.3459 16.9902 17.6066 18.179 18.6937 19.1398 19.5095 19.7987 20.0064 20.135 20.1898 20.1786 20.1108 19.9967 19.8464 19.6685 19.4823 19.3516 19.3364 19.4799 19.8096 20.3392 21.0703 21.9939 23.0916 24.3377 25.7006 27.144 28.6291 30.1155 31.5631 32.9336 34.1917 35.307 36.2555 37.0207 37.5956 37.9836 38.2005 38.2759 38.2543 38.1751 38.0099 37.7275 37.3131 36.7648 36.0912 35.3085 34.4383 33.5051 32.5353 31.5547 30.5874 29.6549 28.7752 27.9618 27.2237 26.5651 25.9855 25.4801 25.0403 24.6546 24.31 23.9927 23.6901 
-3.85253 -3.07217 -2.29905 -1.53776 -0.790593 -0.0581142 0.660324 1.36611 2.06097 2.74663 3.42452 4.09556 4.75997 5.41715 6.06566 6.70321 7.32671 7.9324 8.51601 9.07305 9.59904 10.0899 10.5424 10.9545 11.326 11.6592 11.9668 12.2881 12.6552 13.086 13.587 14.1557 14.7823 15.4523 16.1476 16.8486 17.5351 18.188 18.7899 19.3259 19.7842 20.157 20.4397 20.632 20.7368 20.7604 20.7118 20.6017 20.4418 20.2436 20.0169 19.7817 19.602 19.5377 19.632 19.9123 20.3924 21.0739 21.9477 22.9955 24.1917 25.5046 26.8981 28.3333 29.7698 31.1677 32.4886 33.6974 34.7638 35.6638 36.381 36.9086 37.25 37.4214 37.4522 37.3874 37.2674 37.0677 36.7611 36.3353 35.79 35.1344 34.3846 33.5611 32.6871 31.7868 30.8835 29.9988 29.1514 28.356 27.6236 26.9602 26.3677 25.8434 25.3811 24.9711 24.6019 24.2608 23.9357 23.6167 
-3.70045 -2.91885 -2.14316 -1.3773 -0.623447 0.117565 0.845815 1.56197 2.26697 2.9618 3.64721 4.32362 4.99094 5.64849 6.29498 6.92849 7.54654 8.14615 8.72397 9.27651 9.80028 10.2921 10.7494 11.1707 11.5555 11.9056 12.2329 12.5778 12.9734 13.4377 13.9766 14.5866 15.2564 15.97 16.7077 17.4481 18.1696 18.8517 19.4759 20.0263 20.491 20.8615 21.1336 21.3073 21.3864 21.3781 21.2923 21.1413 20.9377 20.6943 20.4217 20.1404 19.9137 19.8011 19.845 20.0727 20.4979 21.1221 21.9364 22.9228 24.056 25.3045 26.6329 28.0025 29.3737 30.7069 31.9643 33.1111 34.1175 34.9597 35.6218 36.0968 36.3885 36.5128 36.499 36.3917 36.2319 35.9994 35.6711 35.2376 34.7004 34.0694 33.3603 32.5928 31.7885 30.9692 30.1557 29.3666 28.6174 27.9198 27.2814 26.7055 26.191 25.7334 25.3243 24.9533 24.6084 24.2777 23.9506 23.6202 
-3.44941 -2.6728 -1.90077 -1.13646 -0.381798 0.362214 1.09524 1.81738 2.52889 3.2301 3.92118 4.60206 5.27235 5.93124 6.57751 7.20951 7.82521 8.42226 8.99806 9.54994 10.0752 10.5716 11.037 11.4702 11.8709 12.2403 12.5896 12.9601 13.385 13.8823 14.4573 15.1051 15.8135 16.5649 17.3383 18.1108 18.8597 19.5634 20.2026 20.7608 21.2257 21.5891 21.8468 21.9995 22.0516 22.0112 21.8894 21.6994 21.4551 21.1699 20.8552 20.5316 20.261 20.1018 20.0956 20.2692 20.636 21.1977 21.9454 22.8617 23.9217 25.0949 26.3463 27.6384 28.9322 30.1891 31.3719 32.4469 33.3848 34.1624 34.764 35.183 35.4231 35.5 35.4425 35.2942 35.0963 34.8332 34.486 34.0483 33.5236 32.9224 32.2604 31.556 30.8293 30.0996 29.3852 28.7013 28.0603 27.4705 26.9362 26.4575 26.0307 25.6486 25.3012 24.977 24.6636 24.3498 24.0269 23.6906 
-3.10885 -2.34388 -1.58216 -0.826095 -0.0772692 0.663298 1.395 2.11748 2.83051 3.53386 4.22724 4.91015 5.58193 6.24164 6.88806 7.51975 8.13502 8.73197 9.30861 9.8629 10.3928 10.8967 11.3729 11.8207 12.2397 12.6305 13.004 13.4015 13.8564 14.3859 14.9946 15.6767 16.4187 17.202 18.0041 18.8014 19.5702 20.2881 20.9351 21.4947 21.9545 22.3062 22.5465 22.6762 22.7006 22.6289 22.4729 22.2467 21.9651 21.6423 21.2899 20.9282 20.6175 20.4146 20.3599 20.4796 20.7868 21.2831 21.9601 22.8007 23.7811 24.8714 26.0379 27.2441 28.4523 29.6248 30.7258 31.7224 32.5862 33.2947 33.8328 34.1941 34.3821 34.4123 34.3125 34.1254 33.8918 33.6005 33.2371 32.7984 32.2897 31.7222 31.1114 30.4749 29.8308 29.1962 28.5865 28.0138 27.4872 27.0116 26.5878 26.2128 25.8801 25.5801 25.3009 25.0297 24.754 24.4632 24.1502 23.8139 
-2.69166 -1.94506 -1.20055 -0.459739 0.276151 1.00618 1.72963 2.44585 3.15428 3.8543 4.54526 5.22638 5.89675 6.55533 7.20092 7.8322 8.44772 9.04594 9.62529 10.1842 10.7212 11.235 11.7245 12.189 12.6281 13.0423 13.4418 13.8677 14.3527 14.9134 15.5535 16.2662 17.0369 17.8461 18.6705 19.4856 20.267 20.9921 21.6405 22.1959 22.6457 22.9822 23.2024 23.3079 23.3049 23.2031 23.0152 22.7562 22.4414 22.0854 21.7001 21.305 20.9586 20.7156 20.6153 20.6829 20.9312 21.3618 21.9667 22.7295 23.6272 24.6311 25.7086 26.8246 27.9427 29.0267 30.042 30.9568 31.7438 32.3814 32.855 33.1584 33.2952 33.2801 33.1403 32.9169 32.6502 32.3334 31.9565 31.5192 31.0287 30.4972 29.9399 29.3733 28.8138 28.2762 27.7732 27.314 26.904 26.545 26.2346 25.9664 25.7313 25.517 25.3102 25.0966 24.8636 24.601 24.3036 23.9731 
-2.21312 -1.49151 -0.770959 -0.0524143 0.663302 1.37543 2.08324 2.786 3.48295 4.17327 4.85609 5.53047 6.19537 6.84969 7.49225 8.12184 8.73717 9.33697 9.91995 10.4849 11.0307 11.5562 12.0608 12.5437 13.0047 13.4439 13.871 14.3262 14.8414 15.4323 16.1014 16.841 17.6359 18.4655 19.306 20.1325 20.9203 21.6464 22.2907 22.8369 23.2729 23.5913 23.7899 23.8709 23.8411 23.7109 23.4941 23.2058 22.8621 22.4776 22.0642 21.6406 21.2631 20.9843 20.842 20.8607 21.0527 21.4196 21.9537 22.6395 23.4547 24.3721 25.3602 26.3854 27.4128 28.4076 29.3366 30.1693 30.8796 31.4467 31.8566 32.1034 32.1907 32.1326 31.9553 31.6983 31.4013 31.0616 30.6733 30.2392 29.7682 29.2732 28.7693 28.2721 27.7963 27.3546 26.9569 26.6096 26.3149 26.0715 25.8736 25.7121 25.5749 25.4477 25.3151 25.162 24.9752 24.7453 24.4686 24.1494 
-1.68974 -0.999193 -0.30892 0.380731 1.06933 1.75635 2.44119 3.12317 3.80151 4.47535 5.14379 5.80583 6.46044 7.10652 7.74298 8.36867 8.98246 9.58324 10.1699 10.7415 11.297 11.8355 12.3565 12.8592 13.3434 13.8088 14.2647 14.75 15.2954 15.9153 16.6113 17.3748 18.1897 19.035 19.8865 20.719 21.5077 22.2298 22.8655 23.3987 23.818 24.1165 24.2925 24.3491 24.2937 24.1375 23.8946 23.5808 23.2122 22.8037 22.3669 21.9195 21.5154 21.2053 21.0255 20.9994 21.1389 21.4457 21.9126 22.5245 23.2604 24.094 24.9953 25.9323 26.8713 27.7792 28.6241 29.377 30.0128 30.5116 30.8601 31.0526 31.0927 30.994 30.7817 30.4938 30.1691 29.8087 29.4107 28.9807 28.5292 28.0698 27.6175 27.187 26.7915 26.4417 26.1451 25.9051 25.7214 25.5893 25.5004 25.4426 25.4012 25.3599 25.3015 25.21 25.0718 24.8779 24.6261 24.3233 
-1.13769 -0.483434 0.171117 0.826082 1.4814 2.13683 2.792 3.4464 4.09939 4.75026 5.39818 6.04227 6.68161 7.3152 7.94204 8.56113 9.17144 9.77198 10.3618 10.9399 11.5055 12.0578 12.596 13.1195 13.6278 14.1204 14.606 15.1219 15.6973 16.3453 17.0664 17.8511 18.6828 19.54 20.3983 21.2326 22.0181 22.7325 23.3562 23.8738 24.2744 24.5519 24.7052 24.7381 24.6586 24.4785 24.2124 23.8764 23.4868 23.0582 22.602 22.1349 21.7085 21.3713 21.1582 21.0917 21.1834 21.4348 21.839 22.3818 23.043 23.7975 24.6168 25.47 26.3251 27.1503 27.9152 28.592 29.1567 29.5904 29.8804 30.0215 30.0169 29.88 29.6349 29.3181 28.9678 28.5885 28.1818 27.7559 27.3229 26.897 26.4931 26.1251 25.8049 25.5412 25.3393 25.2004 25.1212 25.0944 25.1087 25.1497 25.2003 25.242 25.2564 25.2262 25.1376 24.9821 24.7586 24.4765 
-0.571084 0.0429368 0.657629 1.27346 1.89071 2.50944 3.12959 3.75091 4.37305 4.99553 5.61776 6.23909 6.85879 7.47605 8.09004 8.69989 9.30471 9.9036 10.4956 11.0799 11.6556 12.2218 12.7777 13.3225 13.8555 14.3759 14.8917 15.4387 16.0439 16.7192 17.464 18.2681 19.1143 19.9807 20.843 21.6762 22.4558 23.16 23.7696 24.27 24.6509 24.9069 25.0377 25.0476 24.9455 24.7435 24.4565 24.101 23.6933 23.2477 22.7753 22.2916 21.8461 21.4852 21.2425 21.1396 21.1876 21.388 21.7343 22.2128 22.8044 23.4849 24.2271 25.0015 25.7774 26.5245 27.2136 27.8183 28.3156 28.6874 28.9217 29.0136 28.9664 28.7929 28.5164 28.1721 27.7974 27.3999 26.9848 26.5623 26.146 25.7509 25.3916 25.0814 24.8308 24.6471 24.5335 24.4887 24.5071 24.5789 24.6905 24.8249 24.9629 25.0843 25.1691 25.1992 25.1604 25.0446 24.8518 24.5933 
0 0.571593 1.14411 1.71829 2.29472 2.8738 3.45579 4.04079 4.62877 5.21959 5.81297 6.40855 7.00586 7.60434 8.20336 8.8022 9.40012 9.99628 10.5898 11.1798 11.7654 12.3455 12.9192 13.4855 14.0434 14.5919 15.1382 15.7162 16.3511 17.0534 17.8212 18.6436 19.5029 20.3772 21.2421 22.0726 22.845 23.5376 24.1322 24.6147 24.9754 25.2099 25.3184 25.3061 25.1821 24.9593 24.6529 24.2794 23.8552 23.3944 22.9074 22.4088 21.946 21.5634 21.2933 21.1564 21.1633 21.3155 21.6069 22.0244 22.5495 23.1593 23.8278 24.5265 25.2263 25.8982 26.5142 27.0491 27.4809 27.7926 27.9725 28.0162 27.9269 27.7171 27.4094 27.0376 26.6385 26.2226 25.7983 25.3779 24.9765 24.6094 24.2915 24.0352 23.85 23.7414 23.7109 23.7551 23.8661 24.0316 24.2358 24.4595 24.6815 24.8798 25.0331 25.1223 25.1331 25.0574 24.8965 24.6634 
0.571084 1.10025 1.63058 2.16312 2.69873 3.23815 3.78198 4.33064 4.88446 5.4436 6.00811 6.57792 7.15282 7.73248 8.31649 8.90429 9.49526 10.0887 10.6836 11.2793 11.8746 12.4686 13.0601 13.6478 14.2305 14.807 15.3838 15.9926 16.6568 17.3853 18.1753 19.0149 19.8861 20.7667 21.6324 22.4587 23.222 23.9014 24.4793 24.9422 25.2815 25.4932 25.5786 25.5432 25.397 25.1531 24.8272 24.436 23.9955 23.5199 23.0189 22.5061 22.0265 21.623 21.3263 21.1563 21.1231 21.2284 21.466 21.8237 22.2836 22.824 23.4197 24.0439 24.6684 25.2657 25.809 26.2743 26.6407 26.8918 27.0168 27.0114 26.8791 26.6319 26.2916 25.891 25.4661 25.0304 24.5952 24.1751 23.7864 23.4452 23.166 22.9608 22.8379 22.8015 22.8509 22.9809 23.1813 23.4377 23.7317 24.0422 24.346 24.6193 24.8396 24.9869 25.0465 25.0106 24.8816 24.6741 
1.13768 1.62662 2.11709 2.61049 3.10803 3.61074 4.11952 4.63508 5.15801 5.68872 6.22749 6.77447 7.32965 7.89291 8.46396 9.04242 9.62777 10.2194 10.8164 11.4181 12.0233 12.631 13.24 13.8488 14.456 15.06 15.6667 16.3054 16.9972 17.7494 18.5579 19.4101 20.2877 21.1684 22.0281 22.8427 23.5895 24.2481 24.8019 25.2383 25.5498 25.7332 25.7906 25.7284 25.5572 25.2906 24.9446 24.5357 24.08 23.591 23.0777 22.5524 22.0582 21.6363 21.3161 21.1167 21.0479 21.1109 21.3 21.6033 22.0037 22.4801 23.0086 23.5632 24.1172 24.644 25.1182 25.5168 25.8198 26.0117 26.0825 26.0282 25.8523 25.5668 25.1928 24.7618 24.3096 23.8523 23.4038 22.9809 22.6011 22.2808 22.0349 21.8745 21.807 21.8352 21.9568 22.1646 22.4464 22.7857 23.1621 23.5523 23.9315 24.2744 24.5571 24.7588 24.8643 24.8664 24.768 24.5857 
1.68974 2.14238 2.59712 3.05583 3.52007 3.99117 4.47024 4.95818 5.45571 5.96336 6.48153 7.01046 7.55024 8.10085 8.66213 9.23381 9.81547 10.4066 11.0065 11.6145 12.2296 12.8506 13.4765 14.1057 14.7366 15.3674 16.003 16.6699 17.3866 18.1582 18.9794 19.837 20.7122 21.5829 22.4257 23.217 23.9352 24.5612 25.0794 25.4787 25.7525 25.899 25.9214 25.827 25.6269 25.3354 24.9685 24.5427 24.0736 23.574 23.0516 22.5172 22.0123 21.5766 21.2386 21.0165 20.9195 20.9489 21.0988 21.3574 21.7083 22.1309 22.602 23.0965 23.5887 24.0529 24.4649 24.8024 25.0467 25.183 25.2018 25.0999 24.8808 24.5566 24.1479 23.6855 23.2046 22.7237 22.2591 21.8292 21.4525 21.1462 20.9248 20.7992 20.7759 20.8564 21.0372 21.3094 21.6591 22.068 22.5141 22.9722 23.4161 23.819 24.1561 24.4057 24.5526 24.5893 24.5197 24.3614 
2.21312 2.63469 3.05916 3.48896 3.92606 4.37202 4.82808 5.29517 5.77401 6.26509 6.76875 7.28519 7.81451 8.35668 8.91162 9.47913 10.059 10.6508 11.254 11.8682 12.4926 13.1262 13.768 14.4165 15.07 15.7265 16.3898 17.0828 17.8208 18.6067 19.4338 20.288 21.1505 21.9997 22.8128 23.5676 24.2438 24.8237 25.2935 25.6436 25.8691 25.9696 25.9495 25.8172 25.5845 25.2662 24.8784 24.4372 23.9576 23.4511 22.9239 22.3849 21.8742 21.4308 21.0821 20.8459 20.7306 20.7372 20.8596 21.0861 21.4002 21.7817 22.2079 22.6543 23.0957 23.5074 23.8659 24.1499 24.3415 24.4268 24.397 24.2494 23.9881 23.6252 23.1812 22.6865 22.1758 21.6694 21.1855 20.7438 20.3636 20.0624 19.8548 19.7514 19.758 19.8754 20.0988 20.4183 20.8187 21.2802 21.7795 22.2903 22.7849 23.2357 23.6168 23.9062 24.088 24.1551 24.1116 23.9762 
2.69166 3.08825 3.48875 3.89627 4.31317 4.74119 5.18155 5.6351 6.10235 6.58359 7.07896 7.58847 8.11208 8.64974 9.20135 9.76683 10.3461 10.9391 11.5455 12.1652 12.7978 13.4426 14.0988 14.7651 15.4398 16.1205 16.8098 17.5264 18.282 19.0768 19.9026 20.7446 21.5842 22.4003 23.1714 23.8768 24.4978 25.019 25.4283 25.7182 25.8857 25.932 25.863 25.6882 25.4204 25.0745 24.6666 24.2124 23.7259 23.217 22.6898 22.1513 21.6407 21.1963 20.8452 20.6042 20.4815 20.4774 20.5853 20.7932 21.0844 21.4389 21.8337 22.2449 22.6477 23.0178 23.3324 23.5711 23.7166 23.756 23.6813 23.4904 23.1882 22.7869 22.3074 21.7797 21.2383 20.7048 20.1983 19.7396 19.3485 19.0427 18.837 18.7417 18.7623 18.899 19.1465 19.4939 19.9254 20.4203 20.9544 21.5004 22.03 22.5147 22.9281 23.2477 23.4574 23.5499 23.5296 23.4155 
3.10885 3.48706 3.87036 4.2626 4.66654 5.08397 5.51601 5.9632 6.42572 6.90347 7.39622 7.90369 8.42562 8.96183 9.51224 10.0769 10.656 11.2497 11.8583 12.482 13.121 13.7751 14.4437 15.1259 15.8199 16.5231 17.2364 17.974 18.7433 19.5418 20.3596 21.1814 21.9888 22.7618 23.4801 24.1251 24.6802 25.1321 25.4712 25.6923 25.7944 25.7807 25.6585 25.4387 25.1346 24.7617 24.3358 23.8719 23.3826 22.8762 22.3543 21.8216 21.3171 20.8789 20.5336 20.2977 20.1786 20.1758 20.2822 20.4852 20.7675 21.1086 21.4857 21.8745 22.2505 22.5897 22.8699 23.0713 23.1773 23.1759 23.06 22.8284 22.4865 22.0475 21.5324 20.9713 20.3987 19.8364 19.3043 18.8234 18.4138 18.0936 17.8774 17.7756 17.7936 17.9314 18.1835 18.5388 18.9809 19.4889 20.0383 20.6013 21.1492 21.6532 22.0866 22.4264 22.6564 22.769 22.7686 22.6742 
3.44941 3.81599 4.18895 4.57294 4.971 5.38493 5.81555 6.26298 6.72686 7.20656 7.70137 8.21059 8.73368 9.27032 9.82046 10.3843 10.9624 11.5554 12.1642 12.7896 13.4325 14.0932 14.7718 15.4676 16.1788 16.9023 17.6375 18.3932 19.1725 19.9699 20.7741 21.5691 22.3371 23.059 23.7165 24.2931 24.7745 25.1501 25.4128 25.5599 25.5925 25.5159 25.3391 25.0741 24.7349 24.3372 23.8965 23.4269 22.9395 22.4405 21.9292 21.4077 20.9152 20.4901 20.1588 19.9372 19.832 19.842 19.9591 20.1697 20.4559 20.7966 21.1682 21.5463 21.9063 22.2244 22.4788 22.65 22.7225 22.685 22.5312 22.2611 21.8811 21.405 20.8545 20.26 19.6558 19.0635 18.503 17.995 17.5598 17.2154 16.9767 16.8541 16.8533 16.9743 17.2119 17.555 17.9876 18.4889 19.0343 19.5962 20.146 20.6548 21.0958 21.4458 21.6885 21.816 21.8322 21.7556 
3.70045 4.06203 4.43133 4.81375 5.21258 5.62944 6.06474 6.518 6.98821 7.47408 7.97428 8.48765 9.01333 9.55087 10.1003 10.6621 11.2372 11.8269 12.4329 13.0568 13.7003 14.3645 15.0502 15.7568 16.4827 17.2243 17.9787 18.7497 19.5356 20.3282 21.1142 21.8777 22.6012 23.2671 23.8592 24.3629 24.7669 25.0631 25.2472 25.3189 25.2818 25.1431 24.9133 24.6055 24.2345 23.8159 23.3647 22.8941 22.4135 21.927 21.4311 20.9259 20.451 20.0452 19.7351 19.5361 19.4542 19.4869 19.6252 19.8545 20.1556 20.5066 20.8832 21.2605 21.6136 21.9188 22.1544 22.3015 22.3454 22.2755 22.0868 21.7803 21.3635 20.8511 20.2656 19.6379 19.002 18.3788 17.7874 17.248 16.7807 16.4034 16.1311 15.9745 15.9397 16.0272 16.2324 16.5449 16.9491 17.4249 17.9482 18.4922 19.0284 19.5283 19.9652 20.3161 20.5643 20.7015 20.7309 20.6703 
3.85253 4.21535 4.58721 4.97417 5.37964 5.80496 6.24995 6.71343 7.19358 7.68836 8.19576 8.71414 9.24229 9.77969 10.3265 10.8836 11.4525 12.0354 12.6347 13.2532 13.8934 14.5575 15.2468 15.9612 16.6991 17.4561 18.2272 19.0106 19.8001 20.5846 21.3497 22.0789 22.7556 23.3638 23.889 24.3195 24.6465 24.8645 24.9721 24.9714 24.8681 24.6715 24.3935 24.0481 23.6506 23.2165 22.7603 22.2937 21.8248 21.3554 20.8795 20.3951 19.9425 19.5616 19.2789 19.1094 19.0582 19.1218 19.2898 19.5463 19.8711 20.2408 20.6305 21.0145 21.3676 21.6659 21.8879 22.0154 22.0342 21.9349 21.7136 21.3722 20.9197 20.3718 19.752 19.0915 18.4243 17.7697 17.1454 16.5711 16.066 15.6482 15.3326 15.1305 15.0484 15.0879 15.245 15.5103 15.8695 16.3033 16.7887 17.2996 17.8084 18.2872 18.7096 19.0528 19.2999 19.4421 19.4818 19.4353 
3.90034 4.27007 4.65004 5.04685 5.4639 5.90208 6.36054 6.83721 7.32943 7.83429 8.34914 8.87178 9.40077 9.93555 10.4765 11.0251 11.5836 12.155 12.743 13.3514 13.9839 14.6438 15.333 16.052 16.7989 17.5685 18.3533 19.1462 19.9368 20.7113 21.4538 22.1482 22.7784 23.3301 23.791 24.1518 24.4061 24.5514 24.5887 24.5224 24.3604 24.1135 23.795 23.4196 23.0028 22.56 22.1047 21.6477 21.1952 20.7469 20.2947 19.8348 19.4086 19.0569 18.8064 18.6717 18.6567 18.757 18.9608 19.2505 19.6046 19.9988 20.4068 20.8023 21.1597 21.4549 21.6666 21.7772 21.7732 21.6463 21.3936 21.0186 20.5314 19.9489 19.2955 18.603 17.905 17.2189 16.5606 15.9486 15.4015 14.937 14.5704 14.3134 14.1733 14.1526 14.2487 14.4534 14.7537 15.1318 15.566 16.0313 16.5012 16.9486 17.3478 17.6761 17.9164 18.0595 18.1067 18.0727 
3.84324 4.22476 4.61756 5.02859 5.46107 5.91531 6.38962 6.88103 7.3859 7.90051 8.42147 8.94615 9.4729 10.0013 10.532 11.0672 11.61 12.1647 12.736 13.3292 13.9493 14.6005 15.2858 16.0059 16.7585 17.5377 18.3332 19.1329 19.9224 20.6856 21.4057 22.0665 22.6531 23.1526 23.5549 23.853 24.043 24.1248 24.1016 23.9802 23.7702 23.4837 23.1348 22.739 22.3117 21.8678 21.4201 20.978 20.5461 20.1225 19.6969 19.2643 18.8674 18.548 18.3329 18.2362 18.2609 18.4013 18.644 18.9701 19.3565 19.7777 20.2064 20.6154 20.9787 21.2722 21.4748 21.5693 21.5433 21.3893 21.106 20.6981 20.1769 19.5608 18.8748 18.1513 17.4233 16.706 16.0131 15.3617 14.7696 14.2543 13.8311 13.5123 13.3063 13.2166 13.2421 13.3762 13.6073 13.9194 14.2923 14.7025 15.1248 15.533 15.9021 16.2098 16.4389 16.5795 16.6317 16.6084 
3.68544 4.08277 4.49215 4.92072 5.37129 5.8435 6.33471 6.84095 7.35762 7.88014 8.40448 8.92763 9.44783 9.96482 10.4799 10.996 11.5173 12.0494 12.5984 13.171 13.7737 14.4117 15.0889 15.8064 16.5616 17.3472 18.1501 18.9538 19.7405 20.4921 21.1911 21.8215 22.3694 22.8237 23.176 23.4214 23.5585 23.5892 23.5189 23.3558 23.111 22.7977 22.4308 22.0256 21.5975 21.1608 20.7273 20.3052 19.8977 19.5013 19.1043 18.7008 18.335 18.0496 17.8714 17.814 17.8796 18.0608 18.3429 18.7055 19.1242 19.572 20.0207 20.4424 20.8107 21.1015 21.2939 21.3715 21.3227 21.1414 20.8273 20.3867 19.8322 19.1832 18.4658 17.7126 16.9558 16.2081 15.4808 14.7895 14.151 13.5825 13.0995 12.715 12.4383 12.2743 12.2233 12.2805 12.436 12.6757 12.9809 13.3299 13.6988 14.0626 14.397 14.6802 14.8948 15.0304 15.0856 15.0715 
3.43601 3.85217 4.28087 4.72916 5.19933 5.69013 6.19796 6.71778 7.24403 7.77134 8.29512 8.81205 9.3204 9.82026 10.3136 10.8043 11.2979 11.8012 12.3221 12.8686 13.4487 14.069 14.7341 15.4453 16.1997 16.9883 17.7954 18.6005 19.383 20.1233 20.8035 21.4081 21.9242 22.342 22.6552 22.8606 22.9588 22.9533 22.8512 22.6619 22.3977 22.0722 21.7005 21.2979 20.8793 20.4582 20.0454 19.6479 19.2677 18.9001 18.5326 18.1591 17.8249 17.5736 17.4322 17.4135 17.5186 17.7389 18.0582 18.4547 18.9026 19.3736 19.8389 20.2698 20.6396 20.9244 21.1037 21.1619 21.0884 20.8782 20.5326 20.0591 19.4717 18.7909 18.0434 17.262 16.4778 15.7008 14.9401 14.2095 13.5248 12.903 12.3597 11.9084 11.5597 11.3197 11.1903 11.1683 11.246 11.4106 11.6457 11.9309 12.244 12.561 12.8586 13.1153 13.3135 13.4423 13.4991 13.493 
3.1086 3.54558 3.99527 4.46436 4.95442 5.46325 5.98617 6.51712 7.0496 7.57751 8.0958 8.60098 9.09148 9.56791 10.0331 10.4919 10.9514 11.4198 11.9067 12.4218 12.9744 13.5726 14.2215 14.9228 15.6729 16.4612 17.2691 18.0729 18.8501 19.58 20.2446 20.829 21.3214 21.7132 21.9997 22.1794 22.2541 22.2289 22.1118 21.9133 21.6458 21.3233 20.9608 20.573 20.1741 19.7766 19.3904 19.0213 18.6704 18.3324 17.9942 17.6502 17.3471 17.1288 17.0222 17.0396 17.1808 17.4361 17.7878 18.2128 18.684 19.1724 19.648 20.0822 20.4479 20.7214 20.883 20.9178 20.8164 20.5751 20.1966 19.6898 19.0699 18.3583 17.5821 16.7741 15.9643 15.1597 14.3672 13.5989 12.8699 12.1966 11.595 11.0791 10.6605 10.3465 10.1407 10.0417 10.0432 10.1345 10.3009 10.5236 10.7817 11.0525 11.3134 11.5434 11.7249 11.8462 11.9036 11.9041 
2.72092 3.17967 3.65093 4.14081 4.64997 5.17515 5.71058 6.24918 6.7836 7.3071 7.81431 8.30168 8.76799 9.21448 9.64493 10.0655 10.4847 10.9123 11.3598 11.8384 12.359 12.9308 13.5597 14.2476 14.9899 15.7745 16.5798 17.3799 18.1508 18.8715 19.5242 20.0947 20.5721 20.9491 21.2223 21.3911 21.4587 21.4308 21.3162 21.1254 20.8711 20.5669 20.2271 19.8658 19.4961 19.1296 18.775 18.4372 18.1167 17.8077 17.4976 17.1818 16.9077 16.7199 16.6448 16.6937 16.8657 17.1496 17.5266 17.9724 18.4589 18.9561 19.4339 19.8632 20.2171 20.4724 20.6102 20.6165 20.4831 20.2079 19.7947 19.2539 18.6017 17.8603 17.0572 16.2245 15.3908 14.5607 13.7388 12.9357 12.1658 11.445 10.7895 10.2141 9.73094 9.3489 9.0727 8.90252 8.83385 8.8576 8.96049 9.12542 9.33268 9.56072 9.78765 9.99272 10.1584 10.2725 10.3299 10.3362 
2.29392 2.77438 3.2668 3.77644 4.30289 4.84178 5.38625 5.92824 6.45965 6.97322 7.46337 7.9267 8.36243 8.77258 9.16204 9.53836 9.91146 10.2931 10.6962 11.1338 11.6182 12.1598 12.7653 13.4363 14.1676 14.9451 15.7445 16.5383 17.3021 18.0149 18.6595 19.2225 19.6939 20.0675 20.3405 20.5135 20.59 20.5762 20.4808 20.3143 20.0887 19.8171 19.5127 19.1884 18.8565 18.527 18.2078 17.9031 17.6128 17.3314 17.0473 16.7571 16.5092 16.348 16.2995 16.374 16.5695 16.8739 17.2671 17.7239 18.2155 18.7115 19.1812 19.5958 19.9288 20.1577 20.2644 20.2363 20.0663 19.7537 19.3038 18.7281 18.0438 17.2738 16.4454 15.5901 14.7347 13.8814 13.0331 12.1991 11.393 10.6307 9.92827 9.30104 8.76206 8.32112 7.98419 7.75276 7.62369 7.58932 7.63772 7.75306 7.91674 8.10809 8.30588 8.48966 8.64189 8.74973 8.80731 8.81849 
1.85083 2.352 2.86423 3.39168 3.93277 4.48197 5.03133 5.57191 6.09496 6.59285 7.05993 7.49309 7.89213 8.26001 8.60278 8.92946 9.25157 9.58257 9.93708 10.3299 10.7747 11.2828 11.8616 12.5127 13.2298 13.9968 14.7869 15.572 16.3279 17.0341 17.6744 18.236 18.71 19.0909 19.3765 19.5676 19.6681 19.6838 19.6231 19.4958 19.313 19.0865 18.8284 18.5502 18.2627 17.975 17.6937 17.4225 17.1612 16.905 16.6436 16.3757 16.1501 16.0107 15.9826 16.0754 16.2859 16.601 16.9999 17.4565 17.9416 18.4244 18.8747 19.2637 19.5657 19.759 19.8268 19.7576 19.5459 19.1923 18.7034 18.0919 17.376 16.5785 15.7268 14.8509 13.976 13.1021 12.2309 11.3708 10.5348 9.73842 8.99808 8.32939 7.74601 7.25852 6.87381 6.59437 6.41816 6.33857 6.34471 6.42171 6.55182 6.71504 6.89062 7.05833 7.20058 7.30412 7.36231 7.37784 
1.41581 1.93584 2.46571 3.00828 3.56069 4.11621 4.66589 5.19999 5.70922 6.18574 6.62399 7.02127 7.37811 7.69847 7.98971 8.26228 8.52936 8.80609 9.10879 9.45377 9.8561 10.3281 10.8775 11.5058 12.2056 12.959 13.7367 14.5107 15.2577 15.9585 16.5978 17.1636 17.6479 18.0457 18.355 18.5768 18.7143 18.773 18.7603 18.6849 18.5566 18.3855 18.1823 17.9571 17.7189 17.4757 17.2333 16.9948 16.7604 16.526 16.2834 16.0337 15.8256 15.7022 15.6875 15.7902 16.0061 16.3212 16.7141 17.1582 17.6242 18.0815 18.5 18.8517 19.112 19.2602 19.2808 19.1637 18.9051 18.5068 17.9769 17.3288 16.5815 15.7579 14.8846 13.9905 13.0982 12.2067 11.3167 10.4359 9.57708 8.75568 7.98815 7.29037 6.67639 6.15727 5.74049 5.42919 5.22198 5.11292 5.09177 5.14427 5.25315 5.39886 5.56089 5.71915 5.85596 5.9578 6.01753 6.03702 
1.01244 1.54882 2.09351 2.64792 3.20784 3.76537 4.3106 4.83312 5.32325 5.77308 6.17726 6.53363 6.84357 7.11213 7.34798 7.56306 7.77216 7.99206 8.24066 8.53575 8.89361 9.32737 9.84521 10.4482 11.1281 11.8648 12.627 13.3876 14.1248 14.8209 15.4617 16.0364 16.5375 16.9601 17.3025 17.5649 17.7502 17.8628 17.9086 17.8949 17.8298 17.7218 17.5796 17.4116 17.2255 17.0279 16.8237 16.6159 16.405 16.1884 15.9602 15.7239 15.528 15.4142 15.4054 15.5091 15.7202 16.024 16.3987 16.8176 17.2515 17.6702 18.0444 18.3472 18.555 18.6485 18.6137 18.4423 18.1316 17.6852 17.1121 16.4268 15.6485 14.8002 13.9073 12.9971 12.0898 11.1836 10.279 9.38359 8.50994 7.67352 6.89085 6.17789 5.54884 5.01495 4.58388 4.25898 4.03908 3.91846 3.88709 3.93085 4.03264 4.17298 4.33145 4.48792 4.62465 4.72797 4.79047 4.81372 
0.661944 1.21163 1.76787 2.33048 2.89387 3.44899 3.98509 4.49118 4.95734 5.37572 5.74133 6.05267 6.31201 6.52557 6.70332 6.8587 7.00801 7.16962 7.36288 7.60691 7.91907 8.3132 8.79773 9.37339 10.0309 10.7482 11.4921 12.2369 12.9632 13.6549 14.2992 14.8862 15.4088 15.8624 16.2447 16.5555 16.7963 16.9704 17.082 17.1367 17.1405 17.1001 17.0222 16.9133 16.7798 16.6268 16.4588 16.2785 16.0872 15.8838 15.665 15.4371 15.2478 15.1369 15.1261 15.2216 15.4175 15.6987 16.0431 16.4242 16.8132 17.1808 17.4987 17.7411 17.886 17.9157 17.818 17.5859 17.2186 16.7208 16.1028 15.3798 14.5712 13.6994 12.7889 11.8646 10.9446 10.0268 9.11203 8.20819 7.32807 6.48723 5.70218 4.98884 4.36128 3.83059 3.40421 3.08525 2.87229 2.75931 2.736 2.78798 2.89786 3.04599 3.21168 3.37472 3.51724 3.62556 3.69235 3.71929 
0.381107 0.940788 1.50509 2.07214 2.63494 3.18339 3.70597 4.19126 4.62922 5.01217 5.33563 5.5988 5.80495 5.96144 6.07957 6.17419 6.26305 6.36595 6.5036 6.69628 6.96226 7.316 7.76603 8.31271 8.94566 9.64104 10.3641 11.0911 11.8053 12.4925 13.1412 13.7426 14.2899 14.7783 15.205 15.5689 15.8701 16.1102 16.2917 16.4181 16.4934 16.5221 16.5089 16.4587 16.3761 16.2653 16.1301 15.9734 15.7972 15.6021 15.3877 15.1631 14.9746 14.8601 14.8395 14.918 15.0889 15.3366 15.6391 15.9705 16.3027 16.6074 16.8576 17.0293 17.1019 17.0597 16.892 16.5939 16.1658 15.6141 14.9498 14.1888 13.3505 12.4567 11.5304 10.5941 9.66346 8.73689 7.81623 6.91019 6.03196 5.19731 4.42273 3.72392 3.11457 2.60524 2.20276 1.90954 1.72337 1.63748 1.64079 1.71818 1.85163 2.02088 2.20484 2.38297 2.53735 2.65438 2.72709 2.75779 
0.180017 0.746378 1.31529 1.88315 2.44159 2.97951 3.48472 3.94552 4.35183 4.69631 4.975 5.18793 5.33936 5.43781 5.49586 5.52969 5.5584 5.6031 5.68568 5.82745 6.04744 6.36056 6.77538 7.29182 7.89849 8.56986 9.26983 9.97722 10.6779 11.36 12.0134 12.63 13.2034 13.7285 14.2017 14.6207 14.9842 15.2919 15.5443 15.7428 15.8893 15.986 16.0358 16.0417 16.0068 15.9345 15.8279 15.6902 15.5243 15.3328 15.118 14.8919 14.6988 14.5745 14.537 14.5903 14.727 14.9315 15.182 15.4531 15.7179 15.9493 16.1222 16.214 16.2063 16.0851 15.8418 15.473 14.981 14.3731 13.6616 12.8626 11.9954 11.0809 10.1404 9.1939 8.25455 7.32187 6.39938 5.49696 4.6285 3.81007 3.05814 2.388 1.81273 1.34202 0.981703 0.733021 0.592564 0.552307 0.599917 0.719142 0.89091 1.09406 1.30684 1.50828 1.68035 1.8097 1.88998 1.92459 
0.0594769 0.629488 1.1999 1.76537 2.31621 2.84037 3.32514 3.75856 4.13071 4.43458 4.66687 4.82846 4.9246 4.96494 4.96329 4.93708 4.90666 4.89428 4.9229 5.01469 5.18932 5.46201 5.84132 6.32668 6.90574 7.5514 8.22655 8.91265 9.59862 10.2747 10.9323 11.564 12.1635 12.7254 13.2451 13.7191 14.1444 14.5188 14.8409 15.1097 15.3248 15.4867 15.596 15.6541 15.6628 15.6245 15.542 15.4188 15.2589 15.0666 14.8473 14.6152 14.4129 14.2734 14.213 14.2342 14.3292 14.4823 14.6721 14.8743 15.063 15.213 15.3006 15.3054 15.211 15.0054 14.6819 14.2391 13.6806 13.0153 12.256 11.4191 10.5237 9.58961 8.63637 7.68119 6.73473 5.79819 4.87734 3.98358 3.13175 2.33831 1.61964 0.990549 0.463236 0.0462823 -0.255872 -0.44351 -0.521665 -0.500035 -0.39258 -0.217097 0.00595879 0.254245 0.505144 0.737153 0.932089 1.07696 1.16632 1.20505 
0.0082612 0.579524 1.14901 1.70963 2.25043 2.7585 3.22064 3.62478 3.96114 4.22319 4.4083 4.51819 4.55912 4.54186 4.48136 4.39623 4.30796 4.23985 4.2158 4.25872 4.38879 4.62148 4.96524 5.41902 5.96956 6.58834 7.23738 7.901 8.57114 9.24023 9.90113 10.5471 11.1719 11.7696 12.3347 12.8622 13.3475 13.7865 14.1755 14.5115 14.792 15.0152 15.18 15.2863 15.3344 15.326 15.2637 15.1511 14.9935 14.7971 14.5698 14.3286 14.1135 13.9548 13.8668 13.8509 13.8986 13.9944 14.1174 14.2444 14.3509 14.4134 14.4103 14.3231 14.1375 13.8438 13.4372 12.9181 12.2917 11.5681 10.7607 9.88624 8.96326 8.01055 7.04562 6.08286 5.13046 4.19176 3.27517 2.3939 1.56393 0.802191 0.124935 -0.45363 -0.922314 -1.27391 -1.50561 -1.61953 -1.62264 -1.52662 -1.34737 -1.10454 -0.820209 -0.518114 -0.221918 0.0462395 0.268054 0.430969 0.530595 0.57362 
